ply
format ascii 1.0
comment created by gply, a Houdini tool.
comment converted from .[b]geo
comment for more information about Houdini, try:
comment www.sidefx.com
element vertex 641
property float x
property float y
property float z
property float nx
property float ny
property float nz
element face 0
property list uchar int vertex_indices
end_header
-0.288507372 2.18382287 0.229641706 0.994699717 0.0114023797 0.0945465118 
-0.865767956 2.58621979 -0.447450072 -0.649688125 -0.465999544 -0.59892422 
-0.355321318 2.38269734 0.363362312 0.852098107 0.303528249 0.424006402 
-0.499450445 2.61272359 0.979857981 -0.840748429 0.284310907 0.458678305 
-0.76225704 3.44195652 -0.479502112 -0.168711841 0.854294181 -0.486896157 
0.991254032 3.47374773 -0.284767777 0.884046912 -0.0537295304 -0.461641312 
-0.355588913 2.4578433 0.259778053 0.861149311 0.483113348 0.144861311 
-0.0707192495 4.16895485 -0.032673195 -0.260000527 0.236463621 0.933671772 
0.295338869 3.4658885 -0.028454721 -0.9712919 -0.0652172863 0.221652776 
0.871883154 2.33863878 0.673485994 0.812478542 -0.338422298 0.472088516 
1.27887619 2.86836147 -0.776114166 -0.275127351 -0.324170381 -0.904873371 
-0.635693312 2.3603797 -0.260367841 0.650953293 -0.678918004 0.338869333 
0.0532643385 2.66644621 -0.296645761 -0.995199919 -0.0675999895 -0.0702000037 
0.843507588 3.11960554 -0.326797456 0.597660422 -0.390373468 -0.699301541 
-0.243278846 3.84303617 -0.161535382 -0.751519382 -0.246106148 0.611218274 
-0.378797233 2.34223294 0.500406206 -0.51979965 -0.168465823 -0.835939884 
-0.553128481 2.45082283 0.729322672 -0.975381911 -0.026098419 -0.212817267 
0.780328095 2.6978848 0.845552862 0.474972188 0.0746039748 0.87603575 
0.0336236581 2.1537075 0.587243617 0.662862062 -0.337551892 -0.667765379 
-0.908088207 2.22552538 0.492266208 -0.630154312 -0.0916158855 0.769418061 
-0.000290545227 -0.643731356 0.0186147187 0.668799996 -0.380199969 0.638899982 
0.696727514 2.06284952 0.668171346 0.446394235 -0.537385583 0.714113474 
0.846864998 2.53960824 0.788463891 0.660265982 -0.156408787 0.732922196 
0.328612566 3.11266637 0.235433415 0.990576267 -0.0877261162 -0.102639832 
-0.53034991 3.31984329 -0.564364135 0.450449288 0.503973603 -0.734132767 
1.10971045 3.41314983 -0.310234785 -0.705685794 0.557051063 0.431600571 
0.994675219 3.69753623 -0.17250143 0.903911293 0.390832126 -0.164394066 
-0.372423023 1.90018117 0.000700646313 0.804461062 -0.194269747 -0.560097098 
-0.348565131 3.12739635 0.0597040914 -0.816453338 -0.0664547384 -0.571130335 
0.865526855 3.51237464 0.202502966 0.547972918 0.00418686122 0.835590243 
-0.260895729 2.04517055 0.551052272 -0.251297086 -0.411746323 -0.875156581 
1.61738336 3.19254899 -0.187936679 0.653919339 0.0479840711 0.752404809 
0.501953602 2.23823857 0.264042675 -0.336046636 -0.407200426 -0.848424077 
1.04062736 3.36689496 -0.428507954 -0.893643677 0.429562598 0.113396309 
-0.32935217 2.36952281 1.14868402 -0.383423686 -0.136407182 0.912610471 
0.147941574 4.42468214 -0.303673834 0.314920485 0.927103698 0.199206799 
-0.0830615237 1.8328017 0.916201651 0.56256187 -0.58759284 0.580202878 
0.0980672985 3.72480345 -0.682495594 0.217408881 -0.342235804 -0.912792385 
-0.374762356 1.89247167 0.792767107 -0.849318147 -0.521851301 -0.0744456649 
1.55847418 2.61816287 -0.383907109 0.785814703 -0.497533619 0.364610016 
0.0204362925 4.19750881 -0.734671056 -0.0154955983 0.301295817 -0.952386856 
-0.312504798 2.99100924 0.0471374206 -0.745485067 -0.22634992 -0.625823855 
-0.407458603 1.75886083 0.300101966 0.731146336 -0.402619958 0.548961937 
0.232391849 3.17347908 0.529519439 0.73110497 0.00205181283 0.680143178 
0.112580754 3.71408319 -0.0864851996 0.263710022 -0.350080341 0.898283541 
-0.0389795974 4.10490465 -0.0140491351 -0.173819974 0.103843562 0.977682292 
-1.04250777 2.9433918 -0.190010041 -0.940525591 -0.190761626 0.278444976 
0.275524646 2.50506353 0.366977423 -0.890387595 -0.193416536 -0.408276498 
0.622728765 2.18277407 0.271879256 0.0754452422 -0.443793327 -0.892264068 
1.19802964 3.51852798 -0.382581115 -0.451101273 0.860374331 0.228330612 
-0.189491093 4.31326818 -0.580051124 -0.579166293 0.611371815 -0.535315573 
0.516333997 3.17886806 0.15979588 -0.437116981 -0.34974882 0.8281914 
-0.061422646 3.38772345 -0.0524688326 -0.0512603298 0.464971602 -0.880446851 
0.325235218 3.70598125 -0.15510568 -0.902301848 0.412211895 -0.117512256 
1.54693818 3.27543926 -0.150908053 0.469239473 0.208596483 0.856356382 
-0.747342288 2.6171484 0.325258702 -0.195308492 0.929496706 0.306420863 
0.349790365 3.81337118 -0.278052002 0.916372538 -0.27311337 0.290711522 
0.0112121105 3.39581752 -0.0443091318 0.144711345 0.486997724 -0.858317614 
1.16490972 2.82157636 -0.690780044 -0.638489127 -0.35817349 -0.679779649 
-0.591220021 2.37019348 -0.144338518 0.216849923 0.287033826 -0.930733323 
1.18935752 2.85123801 -0.216246113 -0.548142552 -0.33670038 0.764038146 
1.00479031 3.12406778 -0.543213785 -0.978432834 -0.05989502 -0.193817049 
-0.420805812 1.9775244 0.840702772 -0.880818367 -0.456512213 0.118363865 
0.319536865 3.06538177 0.333345294 0.97476542 -0.146808356 0.160186201 
0.0583749413 4.44043159 -0.47174415 0.0837878659 0.967512012 -0.237307474 
0.785068393 3.11450624 -0.362817258 0.410320699 -0.39374736 -0.821527362 
1.02811968 3.42070007 -0.129219741 0.989253223 -0.124726191 -0.0473953858 
0.77393347 2.8688128 0.795260012 0.463790715 0.462663114 0.751608729 
1.50673342 3.41184306 -0.747553051 0.363434494 0.553312123 -0.746071458 
-0.429353714 2.51782203 0.525022209 -0.64635545 0.0849530548 -0.757276893 
0.107397296 4.33665419 -0.119332299 0.216755971 0.679162383 0.697706103 
0.854156673 2.34749174 0.327457577 0.753358603 -0.331944257 -0.565408289 
-0.651247025 2.47623038 -0.107294954 0.0664823502 0.527231157 -0.846235633 
1.05299056 2.86926389 -0.489581615 -0.943288803 -0.323509991 -0.0563636087 
0.843265414 3.44277334 0.211710051 0.491056502 -0.0971455574 0.864214063 
-0.412030518 3.36568499 -0.331015438 0.765091836 0.634121358 -0.104111314 
-0.231362537 2.72757435 1.10543621 -0.119935699 0.587921977 0.796273232 
1.15826905 3.02485681 -0.179437265 -0.580493808 -0.183188409 0.791367054 
0.64529103 2.27735329 0.801849902 0.138462886 -0.381238997 0.912743926 
0.355028301 3.88877845 -0.522050977 0.898989618 -0.201623917 -0.386461556 
0.359049022 3.66050172 -0.299394608 -0.808504164 0.297936946 -0.505293727 
1.55128205 2.7352922 -0.274641693 0.613589406 -0.415832877 0.669580758 
0.400704682 3.00255656 0.549869716 -0.524333835 0.844378233 0.0864272714 
-0.123461626 3.56545925 0.211479023 -0.211245194 0.963108659 -0.162700564 
-0.952001333 1.93666756 0.178939879 -0.888213575 -0.457106829 -0.0177141428 
-0.00180439081 2.60873818 0.504018366 0.497042209 0.275343686 -0.820345819 
0.387208611 2.4864099 0.800066352 -0.589462101 -0.213400319 0.77755934 
1.72397518 3.15164232 -0.34162119 0.937365592 -0.0195898898 0.343108773 
-1.05064797 2.92130232 -0.332595736 -0.969710231 -0.214426249 -0.110911272 
1.5631727 2.75135565 -0.66533792 0.640288949 -0.405321777 -0.651735008 
-0.778956532 2.74925423 -0.584074378 -0.251281679 -0.356765807 -0.898873985 
1.63070965 2.7835815 -0.593885124 0.83247751 -0.383966655 -0.396577299 
-0.599975169 3.47365403 -0.381256998 0.252160072 0.938710332 -0.230638862 
0.176632822 3.61653185 -0.161429673 0.514136195 -0.415760845 0.749426067 
0.466789484 3.00097823 0.672926128 -0.352496684 0.839991689 0.407206595 
-0.469792932 2.60051322 0.58836782 -0.760043085 0.256837755 -0.593110144 
1.61481547 2.68940806 -0.491196871 0.891067624 -0.446195066 -0.0757891014 
0.528808832 2.87298679 -0.180534557 -0.713616371 -0.58989954 -0.37639308 
-0.517518878 3.36508989 -0.51796037 0.48234728 0.632391989 -0.605509758 
-0.253240794 3.66721082 -0.311763138 -0.895904899 -0.3822698 0.221002981 
-0.128320202 2.12854028 1.10737514 0.17976436 -0.355912507 0.916901946 
1.57215548 2.99748063 -0.176229551 0.549683154 -0.212516516 0.807306409 
0.345979512 2.96332741 0.502342582 -0.679466426 0.731798232 -0.0380767137 
-0.344911039 2.9979291 -0.183053926 0.946525931 -0.128365964 0.293095052 
0.181982428 2.48653865 0.87691468 0.98150605 0.0315087214 0.180108264 
-0.357487053 2.26267552 1.11063993 -0.476798117 -0.248764187 0.841640711 
-0.990227818 2.81110549 -0.151500121 -0.855482161 -0.31124112 0.410981566 
-0.883306146 2.51131868 -0.311367899 -0.846778035 -0.524441361 -0.0872722417 
0.473470449 2.96182156 -0.196954459 -0.786584377 -0.4990291 -0.36091888 
-0.282773525 4.01968908 -0.168806538 -0.823033273 -0.0387133881 0.564438641 
0.271383584 3.84722662 -0.628226101 0.682381988 -0.242216915 -0.688893199 
-0.200334758 2.77454948 1.06790888 -0.0360797606 0.724052191 0.687021911 
0.282390147 3.39081216 0.257199705 0.876311898 0.473376811 -0.0449544601 
0.0386158675 2.62900066 0.0825714543 0.338760585 -0.495027959 -0.799638212 
1.70135057 3.18989229 -0.29208082 0.877398729 0.0434479378 0.475099385 
0.417505205 2.26950049 0.298935413 -0.595807314 -0.386569917 -0.703042924 
-0.344691962 2.91430712 -0.323403865 0.970867991 -0.221235812 -0.0859325752 
0.15834415 0.925638199 -0.0815062225 -0.938099921 -0.0152999992 0.346099973 
0.76857084 3.61203647 -0.461685061 0.29177466 0.188650653 -0.937226713 
1.18128622 3.27740216 -0.780386806 -0.510457933 0.213012755 -0.830358028 
-0.787907243 2.6167357 -0.0648105294 -0.331041396 -0.445048988 0.831327736 
-0.927625418 3.10510492 0.00365472329 -0.612887859 0.0256926119 0.787400067 
-0.165778816 3.50330305 0.080261156 -0.324047327 0.795322776 -0.508514524 
-0.332756639 2.02639127 0.0296953861 0.887523353 -0.106461935 -0.445904464 
-0.272204995 3.80588937 -0.223508298 -0.849109173 -0.279216588 0.44732362 
-0.474868119 2.12058425 0.723718226 -0.893496275 -0.361313403 -0.265309155 
0.105313979 4.02203608 -0.0144404862 0.210730195 -0.0352828391 0.975463986 
0.146585837 2.63721776 0.710442603 0.897965312 0.344453663 -0.266175807 
-0.370021194 3.25953293 -0.408069283 0.881795347 0.345317274 -0.31215474 
-0.785535216 3.3632524 -0.015985515 -0.236581028 0.627135277 0.740983725 
0.312297285 3.86240864 -0.175737545 0.790437102 -0.228126511 0.566285312 
-0.280382335 3.75945854 -0.481391639 -0.900265455 -0.316876948 -0.295683265 
-1.00199914 2.88821411 -0.125154108 -0.849257231 -0.24545294 0.465689123 
0.906442285 3.04459929 -0.0820473656 0.890895963 -0.439725935 0.106515177 
-0.356603682 2.73639393 1.04838419 -0.45601216 0.613152802 0.642043829 
1.39734507 3.45445395 -0.197003305 0.0682673305 0.676039934 0.730393589 
0.657693863 1.94888794 0.443947285 0.450128019 -0.669541895 -0.589766502 
1.26118374 2.73269033 -0.230223954 -0.379396081 -0.417535424 0.824330986 
-0.43193987 2.14112973 0.995719075 -0.745592833 -0.346755594 0.567021012 
0.292725474 3.71538353 -0.532893896 0.812820733 -0.349128723 -0.464108139 
0.963954449 3.20177221 -0.0314712226 0.910610437 -0.332988888 0.239612147 
-0.274311006 1.78950274 0.734451592 -0.579672098 -0.646310329 -0.495166123 
0.315955549 3.41596198 0.0215724353 -0.923091829 -0.130646288 0.357687056 
-0.995972276 2.7621572 -0.218104631 -0.908841252 -0.347445965 0.225531146 
0.826641798 2.87492824 0.750505567 0.605948806 0.479304522 0.630780637 
1.46154547 3.10397577 -0.108951181 0.239686564 -0.0888183564 0.965450168 
-0.940965533 2.80946946 -0.077912353 -0.712437689 -0.312575608 0.626639903 
0.934812486 2.81143141 0.40238443 0.8957268 0.314585835 -0.307648182 
0.0677385107 2.99023271 -0.0607666969 0.304206371 -0.22707051 -0.924015105 
-0.481070906 3.21247077 -0.581712782 0.58013624 0.234307617 -0.776623368 
0.291782409 3.34630466 0.186070904 0.900602758 0.356753707 -0.236583263 
-0.619754136 2.73205566 -0.00645935629 0.243366256 -0.368441105 0.89604044 
0.701340854 3.90597248 -0.19244732 0.109603167 0.970371962 -0.212070972 
-0.242426902 3.87236619 -0.612056911 -0.73862654 -0.218884677 -0.636164427 
-0.560938239 1.85651684 0.450076699 0.1928422 -0.445853472 0.873070359 
0.792307675 3.87591386 -0.22276549 0.342980027 0.892955601 -0.287349045 
-0.541904151 2.37512755 0.710475326 -0.953939319 -0.129404068 -0.265314162 
1.56027126 3.35350585 -0.753811181 0.508462191 0.394423604 -0.764214218 
0.403331369 3.11507916 0.00398995075 -0.837216437 -0.393372387 0.377510607 
-0.160458222 2.8535347 0.932700336 0.0681398734 0.943535745 0.3197999 
-0.689159274 2.79325843 -0.610948145 0.0242700744 -0.324687719 -0.944455385 
-0.292928129 2.30724144 1.15034318 -0.290664941 -0.20595248 0.933779001 
0.133680016 3.59833741 -0.614611387 0.3769328 -0.42771095 -0.820327282 
0.0830020979 3.24327445 0.622673094 0.334796309 0.126915991 0.931090593 
-0.528179646 2.70056581 -0.0649117157 0.549154103 -0.389818251 0.737765551 
1.29379404 2.9546802 -0.134220898 -0.218297467 -0.252812654 0.941231847 
0.484617501 2.91583776 -0.137477458 -0.831120014 -0.54018873 -0.12308611 
-1.03747559 2.86012316 -0.297189593 -0.961797953 -0.271255195 -0.0141254347 
0.267963558 0.449503213 -0.00382659282 -0.331299931 0.0145999985 -0.943399906 
0.155261278 2.5133009 0.960127771 0.911100507 0.077229172 0.401927352 
0.248077706 2.89008832 0.130467936 0.850426972 -0.313875824 -0.419796199 
0.757594049 2.69582129 0.176737443 0.414379776 0.071078591 -0.905484438 
0.725469649 3.55765986 0.256342322 0.175586849 0.081551522 0.980149388 
0.354646891 4.23220825 -0.472008705 0.885871708 0.388333917 -0.246279672 
0.39499414 2.20926094 0.671534777 -0.723515093 -0.42618221 0.541162789 
-0.235973105 3.74865031 -0.199155316 -0.776857436 -0.324785918 0.537970006 
1.66209602 3.18267608 -0.232984424 0.772731781 0.0311183184 0.632293344 
-0.869314373 2.7521801 -0.543281615 -0.527995586 -0.354746819 -0.770958841 
-0.526342571 3.43282151 -0.165001109 0.446540296 0.828806996 0.332168639 
0.85948658 3.02758121 -0.245185703 0.741941035 -0.451041311 -0.495879889 
0.562200427 2.77810526 0.875742972 -0.106844172 0.237647638 0.963317096 
0.0415912308 2.96417379 -0.332177073 0.995499909 0.0669999868 0.0665999949 
-0.567496777 1.9970901 0.513258696 0.216183066 -0.332343966 0.916701734 
1.02552164 3.59315014 -0.063581489 0.977927029 0.151067346 0.128238976 
-0.43340975 2.73496246 -0.429245919 0.825168788 -0.366467834 -0.428429127 
-0.24419108 4.33624792 -0.337325335 -0.721893549 0.677977145 0.115822606 
0.0556928962 4.44802284 -0.331437975 0.0708111525 0.989286184 0.119570427 
0.28168416 4.27058697 -0.576470554 0.689169049 0.490959167 -0.528120518 
0.874396205 2.74556494 0.764062226 0.728354156 0.167108059 0.661527455 
-0.810699999 3.01166177 -0.644947827 -0.303636283 -0.111206971 -0.944978714 
0.296889603 3.43434119 -0.189179227 -0.971060276 -0.107681625 -0.207830638 
1.65783322 3.40892816 -0.349805176 0.770668864 0.544973373 0.325285137 
0.294851571 2.56962061 0.310505509 -0.823842108 -0.118942857 -0.552966714 
0.0708585605 2.62219906 0.567839921 0.693250716 0.306782126 -0.649631202 
-0.400765389 2.24014616 1.07454729 -0.604411721 -0.269628495 0.749255538 
0.327088892 3.98295522 -0.161454707 0.803733766 -0.0915053785 0.585631073 
0.713618815 2.98269725 0.312381715 0.293489039 0.787949443 -0.537350416 
0.0278183259 3.20102239 -0.360117644 0.977400005 0.0766000003 0.1972 
-0.0276295729 2.52075291 0.410287291 0.0854545683 -0.60883832 0.788293839 
0.0710159838 3.31082821 -0.427078396 0.50377202 -0.681864262 -0.529387116 
0.362256557 2.90243912 0.323737085 -0.645665824 0.555721283 -0.519622684 
0.836119711 2.96013641 -0.213335752 0.749155998 -0.50042659 -0.431833237 
-0.306735367 2.3344686 0.243145958 0.967083156 0.226129651 0.107751988 
0.697666109 3.67036963 0.237242877 0.10253568 0.322688907 0.939047992 
-0.108524695 0.689561963 0.0626590922 -0.311500013 -0.247099981 0.917599976 
0.583842039 3.55986953 -0.477640748 -0.20178172 0.0853465348 -0.97533375 
-0.0651190728 2.85030794 0.747713685 0.314793319 0.935153842 -0.159246638 
-0.214435637 2.98176551 -0.0311416518 -0.476923525 -0.234929055 -0.845601737 
0.671432853 3.45530248 0.261297345 0.0316686295 -0.0806908682 0.994998336 
0.0440221652 3.29306459 0.625166595 0.231856644 0.230666339 0.942204952 
0.275479436 4.10644531 -0.104526773 0.664801836 0.106886551 0.736515403 
0.700253367 2.92298198 0.792640269 0.263693482 0.614489913 0.740823269 
-0.377888143 3.20976806 -0.463430107 0.856711328 0.228227004 -0.459161252 
0.555972099 2.53345656 0.878457308 -0.124449462 -0.162998989 0.977598667 
0.0040794434 2.7794559 0.642066777 0.505979478 0.738318145 -0.443261564 
-0.0774504542 2.43688965 0.221420377 -0.403972596 -0.696206629 -0.593023062 
0.034894228 -0.496289015 0.0136442529 0.922899961 -0.247599989 0.294999957 
-0.343293279 2.42729163 1.14857256 -0.417362481 -0.0604931563 0.904659748 
0.0550742447 3.35772371 -0.483789057 0.203306243 -0.654537618 -0.727358222 
-0.77651602 2.62462449 0.139283195 -0.271480173 0.946109891 -0.167768002 
1.03171122 3.46249056 -0.0779028982 0.992627919 -0.0701840296 0.0898184627 
0.527726471 2.86031365 0.193239823 -0.200526565 0.439534068 -0.872781694 
-0.304468542 4.21677113 -0.27605629 -0.890879571 0.349612445 0.281927943 
0.677568972 2.68386269 -0.118052281 0.800199986 -0.341300011 -0.493099988 
1.31686831 3.0977881 -0.838229299 -0.146835402 -0.0965497792 -0.98291254 
1.38321185 2.58545303 -0.284263492 0.052041851 -0.52465862 0.84876591 
-0.220346481 2.9023118 -0.00151757721 -0.516566813 -0.303904414 -0.799493611 
-0.472753972 3.38491869 -0.141965345 0.598859727 0.690217018 0.400552571 
-0.964333713 2.68385386 -0.362065107 -0.885124624 -0.400810599 -0.231634691 
-0.197986498 4.36327505 -0.279577374 -0.592727602 0.756646395 0.267372251 
0.410624892 2.925843 0.297586888 -0.513665974 0.622674167 -0.587947726 
-0.187817425 3.79716158 -0.637881219 -0.612526059 -0.286336273 -0.736079633 
1.05806482 3.36868763 -0.581577957 -0.846560121 0.434440792 -0.299679577 
0.949923515 3.75605917 -0.217331782 0.782098949 0.549748182 -0.284930915 
0.0664039031 2.34379077 0.547533393 0.68483901 -0.166796744 -0.707992673 
-0.212498546 4.2530098 -0.610384822 -0.644058406 0.44312638 -0.61975199 
1.05407226 3.35820436 -0.354837954 -0.857373118 0.40620929 0.31220299 
-0.164801121 3.14232326 -0.0797774345 -0.326077133 -0.0446362495 -0.942224205 
0.0230064858 2.91519737 -0.0516215861 0.188359767 -0.293392956 -0.93690443 
-1.06181526 3.07025361 -0.205154687 -0.970449865 -0.029810952 0.231776386 
-0.124535441 3.50617313 -0.234544277 -0.624700308 -0.491828233 0.605740666 
0.337373823 2.24099445 0.450439155 -0.88550806 -0.405396998 -0.221645892 
-0.973888457 2.4102509 0.382841051 -0.803433657 0.351385117 0.475999653 
0.431278765 2.06483483 0.459894508 -0.800458431 -0.535339236 -0.266214788 
-0.260572582 2.59837699 0.457194716 -0.198190778 0.252031237 -0.945177853 
0.160011619 0.191503793 0.0236453712 -0.749200046 -0.401000053 0.527100027 
0.718084276 2.45152617 0.189698964 0.323675394 -0.246230602 -0.911934018 
0.957448125 2.68934321 0.399680406 0.946534991 0.0600115024 -0.311586142 
0.992061853 3.35126853 -0.243019879 0.909556925 -0.203597188 -0.359625936 
-0.00483306637 3.51060176 0.0566715747 0.0983357355 0.816443324 -0.568306327 
0.949549317 2.75870419 0.402149856 0.930486977 0.193995923 -0.306665957 
0.326649338 2.94134998 0.548918366 -0.735988855 0.66770494 0.08616478 
0.0683430433 2.34143496 1.0686084 0.690607488 -0.169320539 0.702120125 
-0.214451909 1.84335661 0.963345408 -0.144685596 -0.573896229 0.805053055 
0.92771405 3.54122019 0.149798334 0.713992357 0.0534662083 0.69593966 
-0.20951961 3.55405521 -0.376169711 -0.888579905 -0.457154453 0.0170837324 
0.88248229 2.9958663 -0.0927095264 0.877059758 -0.473340333 0.0742187127 
1.69133389 3.3361311 -0.335950494 0.86096859 0.350841343 0.362601161 
0.141770035 4.43309259 -0.412711263 0.300077885 0.948609829 -0.083141923 
0.104604192 2.73040271 0.74801755 0.782986581 0.596013129 -0.164592013 
-0.283560425 2.10820532 1.08821929 -0.304179251 -0.369716972 0.876577258 
-0.914716601 2.60038495 -0.385919809 -0.816782355 -0.455920577 -0.35213685 
0.280392081 3.1665504 0.0822925866 0.85881561 -0.00922409073 -0.509663403 
1.14452398 3.29734778 -0.192364067 -0.610262871 0.257889658 0.747009218 
0.335127205 2.83482242 0.300683618 -0.719549179 0.373258501 -0.582323313 
0.364904583 3.76914811 -0.0555051789 -0.792234182 0.587192535 0.150746077 
0.726872087 2.84310055 -0.216599375 0.418718219 -0.629225075 -0.653611898 
-0.996261775 3.19305229 -0.503836274 -0.800196648 0.190616429 -0.566550672 
-0.918777645 1.93823564 0.0421421453 -0.812361538 -0.414444387 -0.408580661 
-0.365701169 2.28986144 0.504790545 -0.493237734 -0.223532811 -0.839161158 
0.837464929 3.8710897 -0.154906169 0.459940374 0.880154133 -0.11207512 
0.147198617 2.49589276 0.639832318 0.889155507 0.0474893786 -0.451104462 
0.367054671 3.24003863 0.0364036299 -0.84918946 -0.303838134 0.429578036 
0.143925518 2.26490331 0.914597631 0.922488093 -0.246696621 0.293890178 
1.10403574 3.22293949 -0.729580224 -0.713884175 0.102195121 -0.690696299 
1.00687206 3.31808567 -0.0695454776 0.963514209 -0.236159176 0.116590485 
-0.220222712 1.78626812 0.916614115 -0.226319298 -0.649661601 0.725477815 
0.891065478 2.36966228 0.372003675 0.847631514 -0.315721095 -0.424308062 
1.6178143 3.02278328 -0.20684354 0.669301927 -0.185409665 0.717325866 
0.902952492 2.30791545 0.520524204 0.932082236 -0.360491812 0.0118911685 
-0.629992247 2.57679367 0.41867733 0.110412523 0.819093049 0.558951676 
-0.544230819 2.53029227 0.705965102 -0.953488052 0.109540597 -0.275479525 
1.27342689 3.54618311 -0.373951495 -0.25450784 0.933966041 0.24989903 
-0.604332328 2.50809884 -0.451767176 0.427242458 -0.527697325 -0.732949674 
0.179889768 2.67645931 0.34522593 0.844728708 -0.460229099 0.271170706 
1.0303905 3.48082018 -0.162203118 0.987964451 -0.0433921963 -0.134929687 
-0.41113624 3.27066946 -0.481953353 0.771648884 0.373251677 -0.511575937 
0.391126156 4.01604128 -0.463930935 0.972276807 -0.0440452136 -0.221770346 
0.297863841 3.39994264 -0.0529927611 -0.974643469 -0.150662452 0.157820851 
1.38711286 3.39913154 -0.154177293 0.0413454212 0.517286539 0.853267372 
0.866143703 2.82018113 0.289073974 0.711314023 0.336533368 -0.612978458 
-0.965068519 2.50782871 0.228643417 -0.76954478 0.631426394 0.0627693012 
0.856662273 2.94172287 0.625665545 0.68047744 0.668792844 0.29122895 
0.0313511267 3.51510191 -0.165946797 0.0209688731 -0.485153019 0.873324335 
0.156502888 3.4319737 -0.280685306 0.656243205 -0.560320735 0.503692448 
-0.116068952 3.92598629 -0.716999888 -0.384295106 -0.161762774 -0.908360481 
-0.138902068 2.81708121 0.612009287 0.124589495 0.846182823 -0.513534725 
1.5496403 2.80299783 -0.705444098 0.559798837 -0.370785713 -0.739399672 
-0.327890128 3.93371081 -0.2873891 -0.954434276 -0.153036341 0.251501471 
1.16166806 2.64749479 -0.542279065 -0.831483841 -0.47543174 -0.283937871 
0.307536185 2.90224409 0.606880307 -0.793057144 0.555163443 0.242929175 
1.09195518 3.4395659 -0.540341735 -0.750481665 0.632620871 -0.187258005 
-0.875001192 2.82796192 -0.0138361827 -0.513046086 -0.297490507 0.803891659 
0.522732317 2.92337584 -0.231199279 -0.636406898 -0.532419205 -0.556387961 
1.71460736 3.3313396 -0.408536822 0.923373938 0.338822454 0.16698505 
0.680793703 3.45428491 -0.483917177 0.056662932 -0.0821779743 -0.993701875 
-0.566702545 3.02495098 -0.640515387 0.349168062 -0.0946019888 -0.930822253 
0.159270436 3.52110553 0.248573393 0.525146902 0.845753133 -0.0658359155 
0.162313908 2.62837529 0.845996439 0.939745247 0.32227391 0.0988869444 
-0.366119176 2.95035386 -0.436143309 0.900505304 -0.183302984 -0.391368926 
0.450127989 3.2488029 0.144435436 -0.604496658 -0.296688795 0.738893628 
1.4275614 3.41928506 -0.768400609 0.150080666 0.574602187 -0.801375926 
-0.68855077 3.0004034 -0.661123991 0.0236310698 -0.125274271 -0.990345955 
-0.332612753 2.79000807 1.00074124 -0.384886324 0.768908203 0.505279899 
-0.852846622 3.13409925 -0.632075548 -0.414222658 0.075225994 -0.905374765 
1.72301424 2.98057508 -0.489076138 0.970685124 -0.22877939 -0.0512694083 
-0.311166286 3.19084454 0.0124604106 -0.715318203 0.0317187496 -0.695780218 
-0.183699399 2.15923381 0.494555265 0.00915209949 -0.333508164 -0.942065001 
0.401032746 4.02818489 -0.372080773 0.997935414 -0.0262952037 0.0229479484 
-0.0423539206 4.41285992 -0.536543429 -0.177184358 0.896246195 -0.402791589 
0.175251767 3.69924116 -0.119430445 0.461658597 -0.360525846 0.809283674 
0.00826125406 2.37041378 1.1213094 0.524293005 -0.135293931 0.838927746 
0.640501857 2.63568878 0.88982904 0.102433652 -0.0279321801 0.99351424 
1.40235043 3.56154871 -0.550214231 0.0775602385 0.974455297 -0.202884525 
0.37545535 2.37248802 0.284680456 -0.66309154 -0.313498646 -0.678985953 
-0.324835271 3.88989544 -0.452296406 -0.959396541 -0.200427085 -0.195634663 
0.0566355474 2.76953077 0.70706445 0.647609472 0.709415197 -0.271911949 
-0.200200826 2.38240814 1.17845154 -0.0360668227 -0.120306857 0.990347862 
1.67700279 2.8935492 -0.351777136 0.88666904 -0.304676294 0.344982058 
0.175741389 3.46363688 -0.489119738 0.686820745 -0.527685106 -0.497922778 
0.889097989 2.60157037 0.75551194 0.765918434 -0.0778025016 0.637206733 
1.5138166 2.60034299 -0.604696512 0.62350142 -0.512311041 -0.588991165 
0.256180435 4.33573771 -0.530559003 0.614122748 0.676488996 -0.400149435 
0.874489963 3.03060174 -0.000771692547 0.793542922 -0.449032992 0.409060091 
0.435875356 2.36148024 0.790435255 -0.49062252 -0.321708202 0.808303416 
1.62053168 3.33611679 -0.711912274 0.670174718 0.3508057 -0.650338113 
0.235376269 4.34289503 -0.213539168 0.557341993 0.697363079 0.445387006 
0.0168121997 -0.619853556 -0.00947880372 0.749599934 -0.141399965 -0.646699905 
0.230129063 4.05286312 -0.695774317 0.542664886 0.0124223121 -0.838397741 
1.46864152 3.44240165 -0.201688647 0.25954634 0.640890002 0.720423579 
-0.185664296 4.35717583 -0.520134032 -0.561604977 0.738965333 -0.369624078 
-0.552206397 2.39323092 0.872407317 -0.978347182 -0.106783763 0.169094235 
0.43609488 2.23609686 0.730553985 -0.558843255 -0.408601731 0.720235527 
0.68434006 2.51091194 0.165883243 0.22405751 -0.187151074 -0.954877913 
-0.250905901 2.81137133 0.606752455 -0.167460755 0.830267608 -0.528684378 
1.05254507 2.98063397 -0.322849125 -0.882236123 -0.228724837 0.408138216 
0.358276606 2.83033442 0.761021137 -0.656925261 0.362000972 0.658498347 
1.13406217 2.68265033 -0.434528917 -0.881458819 -0.450688243 0.133482575 
0.809974849 3.56099391 -0.453436524 0.400776476 0.0875667185 -0.910932064 
-0.505681694 3.24022174 0.00620948337 0.515612185 0.296878755 0.80278331 
1.5038718 2.51277804 -0.434051156 0.763859391 -0.608926058 0.210933119 
0.761571467 2.64419627 0.856237829 0.424565077 -0.0154971499 0.903579593 
-0.321433216 4.20847368 -0.340906292 -0.936038375 0.328799814 0.107131399 
0.979136705 3.72161722 -0.0339364372 0.862237155 0.454761595 0.20947957 
0.868479609 2.81845021 0.742685258 0.717524111 0.332191706 0.60856849 
-0.676997364 2.4587028 -0.141841441 0.108839333 -0.582512975 0.80408287 
1.64189684 2.75357127 -0.516026378 0.900999069 -0.403872073 -0.151757389 
0.79188484 3.84265208 -0.296521336 0.347279906 0.800260782 -0.485380203 
1.51192546 3.00523114 -0.141637653 0.383457422 -0.20421344 0.899868965 
-0.593892992 3.48278832 -0.297214121 0.26935786 0.962061882 -0.013094563 
1.10283184 2.91430736 -0.668157458 -0.770630598 -0.287742764 -0.566247463 
0.0917001218 2.10053039 0.898288906 0.882258892 -0.374927253 0.282096952 
0.0520554334 2.79048872 0.78288424 0.630010307 0.770301342 -0.0695704818 
0.153672472 3.4873631 -0.227937117 0.551727951 -0.507426679 0.661158502 
-0.52048701 3.45276403 -0.256222278 0.457029611 0.884300649 0.0929915234 
0.394909084 3.59717059 -0.368265748 -0.707469881 0.159006909 -0.686189771 
1.71847594 3.11452341 -0.609441757 0.924842477 -0.0738456249 -0.37061438 
-0.599738002 3.05294442 0.0687503815 0.260210305 -0.0551113449 0.962120891 
0.757966518 2.63117361 0.176126763 0.415308475 -0.0345321074 -0.9069767 
-0.932007074 2.86631536 -0.540615499 -0.661280572 -0.265777558 -0.700076163 
-0.389243513 2.87528491 -0.445130318 0.864365458 -0.257452726 -0.429067373 
-1.05120969 3.19202471 -0.196875572 -0.947206378 0.188304484 0.255155504 
0.746920347 2.81667256 0.835182667 0.390127242 0.327732712 0.857579589 
-0.647574723 3.18990755 -0.655621231 0.133227915 0.18387863 -0.972638786 
0.411977321 3.19928241 0.081427373 -0.742315233 -0.334810793 0.578600049 
-0.76164943 1.70929635 0.284823924 -0.610148013 -0.637208641 0.468796015 
0.570379019 3.7039063 0.214562446 -0.240703642 0.406810373 0.880077064 
0.503676832 3.31211352 -0.423014492 -0.433755726 -0.241702065 -0.86651504 
-0.623724222 2.28720069 0.573793769 0.130833566 0.0616544336 0.987017632 
-0.309584975 3.80949807 -0.340347975 -0.953271866 -0.276272893 0.114563495 
0.220161408 3.45671082 0.177603215 0.702358305 0.659826458 -0.257468134 
1.66843343 2.9394722 -0.639550507 0.836457431 -0.266927421 -0.476604551 
0.382282913 3.93417597 -0.466277897 0.959743142 -0.152455047 -0.230641872 
0.724004805 3.7811172 0.172480538 0.172941506 0.621433437 0.762271225 
-0.000117856267 4.27156019 -0.0602911524 -0.0709912404 0.49360761 0.864333391 
0.641343236 3.63921738 -0.470790416 -0.0489183515 0.249807134 -0.964298725 
0.578780949 3.20106339 0.192383662 -0.241869807 -0.333507687 0.909860373 
-0.465554059 3.27160144 -0.544619441 0.624950469 0.375589311 -0.680558085 
0.658268929 2.67925072 0.146496862 0.149739653 0.0427697934 -0.985562921 
-0.930744708 3.21055007 -0.569025099 -0.625923574 0.229986534 -0.742453933 
0.567542017 3.37031436 0.23753275 -0.250181615 -0.183193207 0.949091434 
-0.531801581 2.26089787 0.784753203 -0.964419365 -0.250414073 -0.0684890151 
-0.166274503 3.52342844 -0.275413841 -0.769584835 -0.479167312 0.42097947 
-0.10495694 2.62733483 1.15068686 0.220217913 0.319664359 0.919149518 
-0.0135097671 0.963506341 0.458174706 -0.973500013 -0.217399999 -0.0710000023 
-0.939066768 2.92166162 -0.552864552 -0.663373053 -0.214041173 -0.715389907 
-0.414491862 2.40859485 0.514172971 -0.607949853 -0.0875865668 -0.787751377 
1.70037842 2.96447062 -0.356943637 0.91521883 -0.243726164 0.316374302 
-0.526940286 2.59817028 0.692902565 -0.913266182 0.251566112 -0.312359124 
1.15747619 2.70262647 -0.5997352 -0.769040465 -0.437406063 -0.463639706 
0.764037669 2.17621207 0.336503923 0.596905112 -0.448156536 -0.663854957 
1.29839623 3.11680007 -0.104042463 -0.195783213 -0.0705178455 0.97751075 
-0.945447624 2.70455313 -0.43251878 -0.801781714 -0.387111425 -0.45347625 
0.937790334 3.2516315 -0.291720748 0.801456451 -0.29438135 -0.51896137 
-1.05616415 3.22025108 -0.27000621 -0.963278055 0.251813203 0.0595531836 
0.149472356 4.40124226 -0.528220057 0.319786012 0.864805341 -0.382639468 
0.401359022 3.10574222 -0.211740956 -0.853825748 -0.399481922 -0.331210941 
0.602278888 1.89994371 0.561860919 -0.0172924083 -0.695884705 0.717272878 
-0.306066036 4.2501502 -0.396079153 -0.896595359 0.435344636 -0.0414959006 
0.699865818 2.39153099 0.832066476 0.282671392 -0.297964275 0.911172986 
1.4371078 2.80156446 -0.183748215 0.205934197 -0.371758759 0.904035985 
0.558280647 2.03378582 0.363121539 -0.22523278 -0.568264842 -0.790662527 
0.900850415 2.33270597 0.599368095 0.904355407 -0.342763633 0.250273168 
-0.922200263 2.80152106 -0.522604108 -0.661600709 -0.318641573 -0.677972198 
-0.0283154715 2.23774099 1.11024082 0.44816047 -0.271590561 0.851286471 
-0.237490416 3.81203508 -0.593981743 -0.747420013 -0.274203211 -0.604539096 
0.312183112 2.71724677 0.749919713 -0.773153484 0.111186892 0.622152567 
0.347164959 2.92650533 0.65635246 -0.683820724 0.624569416 0.374719858 
-0.0444007255 4.0577898 -0.749237895 -0.187892288 0.0208389051 -0.980782986 
0.368744612 2.80964518 0.252372414 -0.627803206 0.310105354 -0.711343884 
0.297432661 2.83919024 0.362185985 -0.821455538 0.38421464 -0.416647851 
1.1666199 2.66774654 -0.359846741 -0.780814052 -0.460873634 0.421213448 
0.172816306 4.41052628 -0.477169842 0.378897607 0.890143514 -0.249275878 
0.898138046 2.68083167 0.745889902 0.788363099 0.045470316 0.610264838 
-0.27659747 2.58905816 1.15966356 -0.240961686 0.231064513 0.939822376 
0.0310449749 3.05487561 -0.346113086 -0.929699898 -0.0955999941 -0.35559997 
0.646326721 3.72014856 0.217808619 -0.035733752 0.450765193 0.888723433 
0.902804136 3.81825328 -0.0277552195 0.64564544 0.729521573 0.222460538 
-0.549755991 2.49363589 -0.197370365 0.70589751 -0.542604625 0.453498781 
0.818448842 3.77828813 -0.358171821 0.426539123 0.613339782 -0.662111759 
-0.0956801102 2.61264873 0.464613676 -0.231287479 -0.508587956 0.82836926 
-0.390869111 1.98238742 0.685842991 -0.761789501 -0.45327884 -0.460584134 
0.136372879 -0.128627971 0.012446424 0.859599948 -0.244499967 0.448699981 
0.448662668 1.17208314 0.331729114 0.911199868 -0.29580003 0.28670001 
0.811782777 2.34795952 0.281125188 0.626493156 -0.331601858 -0.703591466 
0.459158957 1.57531893 -0.0443762504 -0.569599986 0.134299994 0.810899973 
-0.23157236 2.36530471 0.444602221 -0.120593101 -0.141677573 -0.981263816 
0.308156997 4.32698584 -0.398923099 0.754849911 0.6509642 -0.0487893447 
1.31033409 3.47933483 -0.712193072 -0.162659556 0.748500109 -0.6397295 
0.0955156535 4.36651468 -0.612718701 0.182971582 0.766037822 -0.612514615 
0.52308929 3.40614557 -0.452685177 -0.367335081 -0.142911986 -0.918044031 
0.169134334 2.43133235 0.924353361 0.948632419 -0.054587245 0.306806564 
-0.5570696 3.41178465 -0.488111436 0.370215029 0.768345535 -0.516998887 
-0.616417706 3.12491393 0.0731596798 0.215547219 0.0595342182 0.972970426 
0.0259099305 4.39393711 -0.584940016 -0.000748847029 0.844378352 -0.531916738 
-0.621594846 3.32323909 0.0161501709 0.204368442 0.513214529 0.8316679 
-0.373630852 2.04233432 1.00051415 -0.635848045 -0.413602084 0.650764227 
0.538998067 2.2815423 0.233394191 -0.200821474 -0.37839523 -0.902563155 
0.563600123 2.38109684 0.192106664 -0.111802444 -0.306476086 -0.944357395 
-0.165493712 3.33418751 0.601634681 -0.331369102 0.326359719 0.882522523 
0.996884406 3.16692615 -0.453873932 -0.997429788 0.00421014847 0.0443021357 
-0.485086143 2.25436544 0.63750577 -0.836516201 -0.25647682 -0.481598943 
0.35421294 2.56297588 0.243661553 -0.665414095 -0.127245396 -0.733091354 
-0.456986517 2.63338757 -0.213644877 0.855487227 -0.433977038 0.279589176 
1.62057734 3.09739017 -0.194326267 0.66509366 -0.0970468819 0.738366485 
-0.809509099 2.5082171 -0.439052194 -0.514937341 -0.527575493 -0.674283624 
-0.180031165 3.69107938 -0.166188404 -0.644329429 -0.366066545 0.670208573 
-0.826752722 3.1106143 0.0593610629 -0.344460726 0.0351047069 0.935821116 
0.680850744 2.93189216 0.241591752 0.211255461 0.64012152 -0.737240374 
0.22163637 4.31689548 -0.596452236 0.52451539 0.621749341 -0.57900542 
-1.02920723 2.88065791 -0.388346821 -0.928584933 -0.252465934 -0.269077718 
0.932407796 2.65700936 0.695401788 0.878958762 0.00477287266 0.475487441 
-1.05263138 2.96971273 -0.374763995 -0.959927201 -0.162563682 -0.223086506 
0.501273692 2.10609841 0.33838433 -0.425888777 -0.499041766 -0.753677011 
-0.513521731 3.43017435 -0.408448696 0.480579227 0.821420729 -0.303961903 
-0.65155983 2.93753338 -0.647840202 0.125034094 -0.197037622 -0.970967472 
1.37715054 3.1198163 -0.096859917 0.0143126333 -0.0661090985 0.996523082 
1.68579769 2.86263084 -0.427149087 0.934375286 -0.328363836 0.129075944 
0.29563871 3.57764411 -0.0371109359 -0.971147478 0.120446831 0.198700994 
-0.8651914 3.4577322 -0.314655989 -0.433777541 0.897308052 -0.0580718927 
0.0933143124 2.17257309 0.655580878 0.828919053 -0.323747128 -0.454825789 
0.780317962 3.71738672 -0.420001 0.325835258 0.443249524 -0.832267404 
0.165370733 4.28603792 -0.100217171 0.375177711 0.533473015 0.756118655 
-0.429530621 2.69070697 -0.371324986 0.88009572 -0.396326423 -0.260016173 
0.956754923 2.54817176 0.61044395 0.955115139 -0.145743147 0.252437949 
-0.320536405 2.0179472 0.590991974 -0.471270412 -0.429634929 -0.768919587 
0.329494715 2.31478119 0.383023441 -0.838114977 -0.355830848 -0.411004603 
0.0825634226 4.44745207 -0.405674815 0.132057667 0.988884151 -0.0591393411 
-0.967918515 2.98144078 -0.539498329 -0.728821576 -0.148968086 -0.666165769 
-0.708022475 2.71126771 -0.00472537801 -0.0342229083 -0.38255316 0.922095776 
0.731047451 3.02655292 0.117406227 0.265745759 -0.451725036 0.851237178 
0.757187426 2.88080502 0.235453203 0.418519586 0.495297462 -0.758625388 
-0.0367045365 3.54357886 -0.602085412 -0.241828635 -0.464681864 -0.851058722 
-0.355530471 3.00469756 0.443215996 -0.85903132 -0.213158906 0.464670479 
0.79578805 2.89207745 -0.19834812 0.695266724 -0.564883232 -0.442975402 
0.578387737 2.69909644 0.889672816 -0.0630025864 0.0766735822 0.993642569 
0.4536753 3.09399033 0.0657070205 -0.691368818 -0.407171696 0.595302224 
-0.207904935 2.48164034 1.18352473 -0.0562819913 0.0231406819 0.996093035 
-0.482940644 2.81681943 -0.0456547886 0.62389636 -0.306579918 0.717403293 
-0.756941617 2.37059021 -0.241597921 -0.555356741 -0.686301172 0.468735516 
1.22703946 2.56588006 -0.373673767 -0.696588814 -0.544822752 0.466105074 
-0.334298074 2.59674191 0.48097083 -0.396027505 0.248352617 -0.881177723 
1.02077162 1.68780053 -0.313939124 -0.835899949 0.490799934 0.245699987 
0.914095581 2.8694644 0.615084887 0.84194386 0.464436114 0.265506774 
-0.821154714 2.53618646 -0.133329496 -0.530337572 -0.503819525 0.680535436 
0.780852497 3.86320996 0.042443119 0.315038085 0.85819912 0.400007874 
-0.12901397 2.75393605 1.08173335 0.154410243 0.663933456 0.728540421 
0.11601299 2.55451322 0.306060284 0.808450341 -0.564777732 0.16429545 
-0.621300399 2.81852841 -0.610442162 0.221062154 -0.305185825 -0.924977005 
0.945815921 2.83284283 0.508086205 0.926701069 0.368293345 -0.0231721867 
-1.02158237 2.97076535 -0.124274909 -0.875704408 -0.161436081 0.453527749 
0.306492418 3.64993978 -0.0584591962 -0.948888183 0.273932308 0.142717481 
-0.0776424482 2.92986107 -0.0607191622 -0.100395888 -0.281431019 -0.953770638 
-0.0975812897 2.85252953 0.902926803 0.230973154 0.940922558 0.242615432 
-0.208458468 3.79895496 -0.141483665 -0.670789659 -0.284873456 0.683828354 
0.301481873 3.49161553 -0.223189816 -0.953377783 -0.0276127122 -0.297208905 
0.814384401 2.98335481 0.609840989 0.558343053 0.789855599 0.244949028 
0.741678119 3.02979851 0.456954777 0.361133158 0.91795212 -0.154484138 
0.629302323 3.82489777 -0.359032005 -0.0801375434 0.748792827 -0.655053735 
0.232282653 4.38163757 -0.467229635 0.539858699 0.809878349 -0.226690084 
-0.938225508 3.03453851 -0.00716920523 -0.642782092 -0.0820150897 0.760607541 
0.798065007 2.4911468 0.814810574 0.537098646 -0.208325833 0.816751182 
0.824477494 3.6740098 -0.41990912 0.44404605 0.331819952 -0.830323339 
0.32705453 2.39961529 0.329464436 -0.790183485 -0.291369647 -0.5379861 
0.993465006 3.29429221 -0.19310911 0.93717128 -0.258242041 -0.228887081 
1.34866071 3.26032352 -0.103888713 -0.0618674234 0.176019162 0.980891883 
0.296494484 3.63538742 -0.334358662 0.900803924 -0.403422803 0.154429629 
0.526460171 3.30996275 0.210050046 -0.370728374 -0.243698135 0.895742059 
-0.261856526 4.02950573 -0.621090055 -0.766814113 -0.0243646186 -0.639939189 
-0.0353288502 3.7756083 -0.0585749522 -0.178663701 -0.303918302 0.935282886 
-0.349513024 2.13881636 1.069839 -0.495918214 -0.348448485 0.794026434 
0.293060422 2.86822915 0.407692522 -0.833608747 0.461074769 -0.294088125 
0.334244817 3.72503114 -0.418738395 0.931533575 -0.342069119 -0.115016125 
-0.489724904 3.00843692 0.0143688051 0.556546569 -0.115236342 0.821743846 
0.558844507 3.8350935 -0.325743467 -0.265373349 0.778349042 -0.564267695 
1.35482597 3.49612784 -0.242400065 -0.0445212796 0.797181249 0.599044561 
-0.406088203 2.74809694 -0.2100541 0.898058653 -0.357551396 0.253311604 
0.507039666 3.40793705 0.22269398 -0.410386771 -0.140673473 0.899286568 
0.886888504 3.23522615 0.12267755 0.662090361 -0.307764083 0.682263434 
0.143552661 3.37880945 -0.33845067 0.730298281 -0.628842235 0.262969285 
0.873632729 3.77514577 0.0921804607 0.575019717 0.604350507 0.547319651 
0.0904750302 3.49714923 -0.186459139 0.271903783 -0.499311417 0.821649671 
-0.160021275 2.51489162 0.21294798 -0.697998405 -0.617153883 -0.361542732 
0.281071961 2.40887022 0.614736915 -0.916704357 -0.283819914 0.280076772 
0.719166756 1.97851264 0.526631296 0.764527798 -0.640609622 0.0649357587 
0.258658856 3.98805451 -0.0889012218 0.620407283 -0.0849527568 0.778782308 
0.937955201 3.53031588 -0.362227619 0.741028786 0.0348375365 -0.667243779 
0.672351003 3.8278985 0.133640155 0.0337917656 0.757491708 0.648199558 
0.256657332 2.75217867 0.640957892 -0.924149275 0.18016839 0.33253628 
-0.754730582 3.09264159 0.0786628202 -0.15265432 0.0044005895 0.986678898 
0.0550661981 2.56042814 0.532033324 0.646741271 0.169051558 -0.741413891 
-0.0471766964 2.13040948 0.538781822 0.428477138 -0.354600161 -0.83036834 
0.539316118 2.92317939 0.802795887 -0.168385208 0.61505425 0.768087566 
1.58253396 2.71528912 -0.616894186 0.741337538 -0.428986698 -0.514844954 
0.165045157 4.01490974 -0.728410423 0.369985491 -0.0456993803 -0.926465273 
-0.667030752 2.77131605 0.0176313408 0.0915234834 -0.340743959 0.935434818 
-0.300788522 1.83890593 0.706824601 -0.605122864 -0.579749525 -0.543541253 
1.65113235 2.86523247 -0.622837365 0.829368353 -0.326460004 -0.452199101 
0.02926993 4.42595291 -0.52192688 0.00795073807 0.930422902 -0.365365654 
0.648224175 1.90741897 0.489952058 0.628688276 -0.681716621 -0.372487634 
0.800319552 3.40972567 -0.451632112 0.378575474 -0.138438568 -0.914598346 
0.294613689 3.98067164 -0.638481855 0.717289507 -0.094358623 -0.688872099 
-0.174026862 3.55850816 -0.509283304 -0.74904573 -0.454193532 -0.481014401 
0.441006452 2.75805831 0.845342219 -0.431086689 0.192542762 0.879927099 
0.457617819 2.29968095 0.776889622 -0.451165617 -0.366081655 0.812985837 
-0.600447774 2.81104088 0.0181934647 0.283078969 -0.3112939 0.90669167 
0.271225691 3.91089702 -0.647100866 0.665068448 -0.177928075 -0.72307235 
0.491371214 3.35047126 0.204005301 -0.460260093 -0.204451233 0.863470972 
1.14222991 2.85039878 -0.258298844 -0.690272093 -0.337314457 0.638159275 
0.749769151 2.93958569 0.280208826 0.395054609 0.662559271 -0.632370472 
-0.792984009 2.44737887 -0.399260014 -0.533396006 -0.597388744 -0.597151697 
0.377672374 3.70026898 0.0780772865 -0.760549545 0.397686958 0.511632442 
-0.316142231 4.04634762 -0.226666138 -0.910749614 0.00129136816 0.409797758 
0.283567458 2.56071591 0.702024937 -0.855479777 -0.130069301 0.497871488 
-0.243166372 3.29867482 0.573683202 -0.538661242 0.243289337 0.804572225 
-0.578002989 3.08656526 -0.648285091 0.317488343 -0.00596858189 -0.94718647 
0.0428340361 4.33377075 -0.656366169 0.0444575474 0.67075187 -0.736531615 
0.0399900042 2.75080729 0.97570163 0.606838286 0.654808164 0.445453554 
0.534569621 3.45869207 0.240036502 -0.333510727 -0.0757360831 0.938037276 
1.22707522 3.43240047 -0.215076864 -0.388519138 0.612122536 0.685873508 
0.934384406 2.7221005 0.351446748 0.88690573 0.120771557 -0.440949321 
0.366686314 2.21830058 0.399932057 -0.811928272 -0.42024672 -0.402785927 
-0.802592516 2.35932398 0.544514537 -0.342116058 0.214270473 0.912270069 
1.53146923 2.8047297 -0.221918255 0.501650095 -0.369610041 0.781040847 
-0.128137887 3.7149179 -0.115650311 -0.470836163 -0.349469393 0.808644414 
1.01500654 3.46373487 -0.226576403 0.947980106 -0.0683652908 -0.30675292 
0.712662458 3.51959634 -0.482792735 0.141284555 0.0165243223 -0.98787719 
0.31114623 2.33399487 0.625136495 -0.879333198 -0.341820478 0.327834576 
0.970967472 3.751652 -0.134480014 0.839340806 0.537140608 -0.0617718026 
0.134937242 1.34483576 -0.130588531 -0.360900044 0.091200009 0.928200006 
1.17085552 2.75067949 -0.654711843 -0.672791302 -0.405764252 -0.616748571 
0.305298805 4.29396963 -0.509601891 0.751549542 0.556163669 -0.347109199 
0.889176667 2.91306448 0.428800076 0.772048414 0.586118281 -0.236322746 
0.112171702 -0.214023948 0.0172079075 0.859499991 -0.240200013 -0.451200008 
0.846758664 2.96566939 0.45014295 0.648785114 0.738587379 -0.176387176 
-0.0106713874 4.44421816 -0.310844511 -0.0983011723 0.976750791 0.18610701 
0.24618502 3.6646874 -0.565042794 0.707263708 -0.383982867 -0.592696786 
-0.0924461335 3.69578528 -0.655712903 -0.368807375 -0.362871885 -0.854947627 
1.46348214 3.17848921 -0.833978653 0.244049788 0.0239642039 -0.967290223 
-0.139034227 0.946865559 -0.100675814 -0.0406999998 -0.150199994 -0.987800062 
0.384557396 4.17538548 -0.414030701 0.96203202 0.250932992 -0.0894548073 
0.314726293 3.77635527 -0.537119806 0.83725208 -0.303309083 -0.45391798 
0.433674306 3.0359025 -0.205241054 -0.826829731 -0.44550848 -0.342834949 
1.20523202 3.40478015 -0.735791087 -0.448982239 0.533107221 -0.715097666 
0.314793766 4.23248053 -0.19950448 0.77841872 0.389016449 0.488715649 
-0.361639798 3.16999102 -0.137842357 0.896832705 0.14454861 0.412343264 
0.0878179446 3.31922197 -0.342740685 0.623884082 -0.677996039 0.387249529 
0.373763204 2.17341971 0.43948409 -0.844956696 -0.450013071 -0.285768718 
0.528941333 2.68056655 0.149044603 -0.194606364 0.0450176038 -0.978803039 
-0.881161332 2.83278656 -0.56858778 -0.529122114 -0.293554932 -0.795663416 
-0.874210238 3.01050329 0.0333759114 -0.473847449 -0.112654492 0.872319221 
0.235185742 3.77807403 -0.634529233 0.60577333 -0.301906884 -0.735774994 
-0.123555064 2.39112568 1.1744312 0.169291139 -0.109414257 0.977995753 
0.291085869 3.09199262 0.113425396 0.893696368 -0.113558128 -0.429929972 
1.03325987 2.93223763 -0.493748397 -0.958658576 -0.27311632 -0.0657595322 
-0.0793680474 2.48854518 0.449979663 0.285860807 0.0349367037 -0.956364632 
0.175046384 3.5704236 -0.573709786 0.545843124 -0.446270913 -0.707783937 
-0.293474287 3.44112086 0.123061739 -0.673977137 0.614709377 -0.40481773 
1.60914707 2.88574576 -0.692566872 0.693250239 -0.311041921 -0.648487449 
0.714413345 3.15379834 0.180334851 0.171650767 -0.367161661 0.913531303 
-0.532809496 2.54060388 0.941787004 -0.923842132 0.129903153 0.353821337 
-0.0969543457 1.29670918 0.639816701 0.251300007 -0.404399931 0.879399896 
0.532904804 3.89468312 -0.13207531 -0.328143686 0.941728711 -0.0531336628 
-0.474539101 2.73978019 -0.0925882682 0.693035424 -0.363197297 0.620848298 
-0.290163189 3.88248873 -0.215811893 -0.866677344 -0.208362073 0.451746702 
1.5190115 3.1420362 -0.125816762 0.392104656 -0.0336309262 0.91800952 
-0.066657804 3.56247544 0.165166438 -0.0629292652 0.955737114 -0.282249957 
1.1362797 3.46313739 -0.595446348 -0.627203107 0.701365888 -0.332670748 
0.967230618 3.24440432 -0.228402764 0.89052701 -0.300276875 -0.338194877 
1.32157612 2.70088506 -0.715045691 -0.180677712 -0.438563973 -0.879893184 
-0.250712335 4.19702148 -0.601605356 -0.745060146 0.300073832 -0.594310522 
0.627597928 2.83713317 0.858022511 0.0689285994 0.379054934 0.920384765 
-0.0437046289 3.43824911 -0.227591306 -0.345296293 -0.553852558 0.756347537 
0.0405270532 2.04075456 0.948438048 0.774997652 -0.414635807 0.474568903 
0.50003916 2.7380414 0.871485472 -0.272551477 0.15225096 0.948180556 
-0.260891885 4.25128126 -0.547546268 -0.774692178 0.438422889 -0.450207829 
0.318051666 4.3128624 -0.344690233 0.783692718 0.610210896 0.096705243 
0.927784681 2.59527802 0.698230863 0.869538844 -0.0868836641 0.484582543 
1.03128147 3.10290194 -0.621631384 -0.909326196 -0.0901601017 -0.403564066 
-1.04355764 3.12976742 -0.14993979 -0.922102273 0.0678255111 0.378903091 
-0.426950574 2.77441525 -0.136359766 0.814184368 -0.338476121 0.469206572 
-0.511550426 2.53496289 0.62904644 -0.866646767 0.118764006 -0.480856061 
0.769149363 2.83827281 -0.162355751 0.699512601 -0.635294199 -0.324294448 
-0.074501358 4.37493658 -0.589206934 -0.264738828 0.790452838 -0.548166037 
0.497812033 3.70741534 0.183618948 -0.436534673 0.416113824 0.796633363 
-0.28478989 3.73613119 -0.335486084 -0.93142879 -0.333946764 0.135422826 
0.602917492 1.95020187 0.609424293 0.00593622588 -0.67059201 0.741482913 
-0.547016203 2.58655977 0.768417716 -0.965993702 0.225442976 -0.109489597 
-0.421048522 3.03820133 -0.542955875 0.737183809 -0.0766612068 -0.669036388 
0.688264132 2.8210156 0.854078591 0.232270509 0.338626057 0.908743083 
-0.041561801 3.712713 -0.0823237151 -0.207173392 -0.351082921 0.912106574 
