ply
format ascii 1.0
comment created by gply, a Houdini tool.
comment converted from .[b]geo
comment for more information about Houdini, try:
comment www.sidefx.com
element vertex 641
property float x
property float y
property float z
property float nx
property float ny
property float nz
element face 0
property list uchar int vertex_indices
end_header
0.674536228 2.0204525 0.649807334 0.9467538 -0.235166848 -0.216848806 
0.493773609 2.52426195 0.585185647 0.397708118 0.701094091 -0.588842452 
0.211811811 2.13155699 0.315572977 0.820692837 -0.147265926 0.549741805 
0.147030905 2.49805331 0.341821909 0.5821262 0.361602277 0.724908948 
0.417978138 1.5930475 0.481015682 0.724896371 -0.618492424 -0.30145517 
-0.201019242 2.11362863 0.441147178 -0.394152761 -0.0771636665 0.914478064 
0.255830854 2.29917002 -0.102448381 0.869850636 -0.120959833 -0.474621028 
0.285167873 2.39912415 0.180271506 0.948287249 0.134264737 0.281312287 
0.0292573664 1.6909827 0.313316584 0.716367602 -0.554484963 0.421993315 
-0.0550613888 2.33765674 0.460478395 0.0430033132 0.14146933 0.987804294 
0.129424945 2.68983388 0.0711783916 0.524956584 0.850084901 0.00449530687 
-0.0476214327 1.67320418 0.361200631 0.217986181 -0.441977143 0.869850934 
0.0775631592 1.89890623 0.389376521 0.583730817 -0.256855965 0.768927634 
0.0779597685 2.15773225 0.435936481 0.435413718 -0.0484286398 0.898208022 
0.446582764 1.74185479 0.411257237 0.561658144 -0.242318526 -0.789734066 
-0.257674098 2.04448199 0.39906612 -0.597672462 -0.15608789 0.785490751 
0.149521142 1.88045967 0.290005118 0.847018421 -0.367207885 0.38404271 
0.296059459 1.78647482 0.368878454 -0.149517536 -0.103999794 -0.982575655 
0.250634462 2.12229133 0.233565763 0.923826456 -0.205623135 0.318843514 
0.169381469 2.63573956 0.182417944 0.646998763 0.690116286 0.315733016 
0.715342104 2.16230941 0.79705137 0.989259422 -0.127389118 0.0521237142 
-0.138495818 2.10925746 0.460933745 -0.206474096 -0.0660325959 0.975333989 
0.450652301 2.56611848 0.615032017 0.28133598 0.813581824 -0.508480549 
0.58107239 1.81501353 0.565267801 0.882138491 -0.387487948 -0.267003924 
0.620764196 2.25019431 0.526793003 0.742762089 0.156666294 -0.648176908 
0.283867061 2.32674384 0.202955857 0.946675122 0.0217928588 0.317542851 
0.235130101 2.47382712 0.518211067 -0.296767354 0.586694896 -0.75149107 
0.6101017 2.42354608 0.596369326 0.70724231 0.451621145 -0.542525947 
0.4822492 1.78395343 0.426690847 0.643429458 -0.228852645 -0.72923708 
0.148660406 2.66221166 0.160327643 0.587740004 0.766150236 0.251869977 
0.0723317936 2.69906831 -0.0441455618 0.370730996 0.878552377 -0.298567593 
-0.192529038 2.51912618 0.387126654 -0.324635088 0.413595617 0.847794771 
0.600090325 2.23612475 0.501218975 0.691688061 0.15172565 -0.70449239 
-0.243075475 1.93239212 0.381699026 -0.635104477 -0.242954224 0.732814491 
0.151838645 2.00736904 0.421495676 -0.580772877 0.00120781269 -0.813242078 
0.41032058 2.54202104 0.567047715 0.172614753 0.748260617 -0.638503969 
0.283893973 2.09396076 0.373451084 -0.161741793 0.113779485 -0.979355872 
0.119574912 1.81168509 0.283218801 0.838911295 -0.437648833 0.321725309 
0.609780788 1.98438144 0.515711188 0.826099336 -0.155398503 -0.540611327 
-0.106494814 2.23305964 -0.281011373 -0.0944132954 -0.287413001 -0.952441037 
-0.0609919019 2.38541389 -0.30515033 0.0269437432 0.0194696449 -0.997556806 
-0.144502163 2.20856571 -0.266899705 -0.195760727 -0.323136985 -0.925021768 
0.113759324 2.16406822 0.416207373 0.5357095 -0.055661872 0.841893375 
0.281219125 1.75615013 0.375657409 -0.227956086 -0.138626188 -0.962795973 
0.673610389 1.99683869 0.68077004 0.949581444 -0.287787884 -0.122283854 
0.237007231 1.9957118 0.377431899 -0.31955871 0.0347442664 -0.945815444 
0.259110153 2.54719639 0.0880256072 0.890938878 0.448389381 0.0632622242 
-0.118539996 2.52692246 0.402661294 -0.127031505 0.432593465 0.890128314 
0.277373701 2.4377811 0.183157235 0.929227054 0.207647681 0.298784524 
0.264539301 1.72222841 0.386259407 -0.331339896 -0.187344089 -0.92392379 
0.00661955215 1.99056077 0.746568501 -0.949017942 -0.305424601 0.0651628003 
-0.248297557 1.84601116 0.337185353 -0.749918699 -0.349159598 0.56025058 
-0.405863464 2.41363645 0.230070546 -0.891493678 0.173702195 0.413648784 
0.719483733 2.24423671 0.771404624 0.996496081 0.0287275799 -0.0460101962 
-0.019159494 2.68744683 0.265393406 0.139015615 0.83251667 0.534895718 
0.171545908 1.90715921 0.262793183 0.879068494 -0.369087338 0.300712347 
-0.18282634 2.41802478 -0.285704434 -0.301505774 0.102382436 -0.945346057 
-0.0803661346 2.11587167 -0.234836504 -0.0252947267 -0.447763979 -0.892553449 
0.260557622 2.12363601 0.201227158 0.945559978 -0.223425388 0.231478959 
0.0356675088 2.02171564 0.901030004 -0.834917426 -0.371098936 0.404408038 
-0.234542742 2.29522538 0.426863253 -0.445503831 0.0770613775 0.890589595 
0.167664856 2.28129935 0.377711326 0.649905443 0.0370998792 0.757024705 
0.154967085 1.86372423 0.253339231 0.876463771 -0.415847391 0.239425182 
0.297326356 2.61808515 0.878812313 -0.125827342 0.966791153 0.218097419 
0.6129179 1.91204786 0.554950058 0.882093966 -0.27000168 -0.383306921 
0.518490434 2.08260489 0.41937533 0.525378287 0.0400062874 -0.849674523 
0.28408435 1.74930727 0.86214304 -0.168176293 -0.7425524 0.646612823 
0.0563759729 1.88024318 -0.0375066362 0.421576977 -0.62260437 -0.658379614 
-0.222279876 2.71448541 0.0538524948 -0.390883505 0.918121457 -0.0452542864 
0.0140375253 1.73907769 0.367330134 0.510149658 -0.415467501 0.752099633 
0.232993379 2.36335421 0.297491133 0.810614347 0.111269519 0.571926951 
0.510698795 2.15986633 0.422287077 0.475795746 0.117952332 -0.8704983 
0.48974508 2.59454513 0.869203329 0.372697353 0.905358016 0.194681898 
0.383889198 2.60805583 0.673119545 0.100711361 0.933019102 -0.339063376 
0.522266388 1.81146073 0.458366662 0.742241085 -0.252260745 -0.6191324 
0.0538687892 2.43636155 0.417901963 0.332286149 0.266083002 0.903232574 
0.216451526 2.02910566 0.2602382 0.894517481 -0.27110672 0.35359931 
0.681624532 2.39215255 0.712567866 0.900687337 0.358494908 -0.236789212 
0.685082555 2.06228638 0.656718612 0.953629255 -0.188107029 -0.22858423 
0.587773204 1.98197508 0.48555842 0.771825552 -0.126663566 -0.623018682 
0.604350567 2.32405734 0.532305479 0.691024125 0.273408473 -0.666858554 
-0.0744823366 2.38200188 0.453253716 -0.00930268224 0.196950823 0.979521632 
0.554152369 1.84484816 0.486164153 0.797693789 -0.257992297 -0.543084264 
0.428663671 2.58893681 0.646012127 0.221234769 0.878486872 -0.419259429 
-0.0103151547 2.34184241 0.732402563 -0.950115263 0.254045278 -0.167119607 
0.13401562 2.26351404 0.46793738 -0.563153803 0.23324807 -0.79129082 
0.488355547 2.58910394 0.699205875 0.37923637 0.882200003 -0.270218134 
-0.275389731 2.58820701 0.292149723 -0.550734222 0.562617123 0.611872256 
0.268585533 2.51192737 0.134035513 0.913413465 0.361978918 0.183664829 
-0.321228862 2.48571515 0.319031924 -0.667734265 0.331941932 0.662705183 
0.477594614 1.7344712 0.440829128 0.693586111 -0.305055171 -0.652135372 
0.638896048 2.18846035 0.538539708 0.803037822 0.0605314746 -0.590476155 
0.518336058 2.58745623 0.833118737 0.448652148 0.885595083 0.0990286469 
0.255773723 1.6469785 0.411541432 -0.478684902 -0.31530714 -0.81866312 
0.0259728543 2.36320949 0.96043992 -0.864188612 0.266528934 0.423270643 
0.513352811 2.29159474 0.452376038 0.454761446 0.265665442 -0.84831512 
0.284169406 2.22850823 0.396553814 -0.15811047 0.229483932 -0.959325194 
0.00686608115 2.37193441 0.697733879 -0.905595481 0.326626927 -0.263842642 
0.646866322 2.48009491 0.801556051 0.809515119 0.582892001 -0.00440608338 
0.683682501 2.32937288 0.65656513 0.901080251 0.233230665 -0.362760425 
0.520414054 1.95423818 0.424185961 0.604136169 -0.0798634738 -0.791627884 
0.374944299 1.70096564 0.386400908 0.272237062 -0.227617204 -0.93394506 
-0.292899042 2.06035757 0.371683836 -0.692789197 -0.165977016 0.70011586 
0.574161232 2.49524498 0.625396609 0.614288092 0.623731554 -0.479617745 
-0.297514886 2.39734268 0.371267051 -0.603575528 0.189505607 0.771973908 
0.696534038 2.34656882 0.712096989 0.937618494 0.254541874 -0.227765411 
0.33212918 1.51298511 0.431492925 0.411795259 0.762917519 -0.496646345 
0.244607031 2.61257148 0.73829186 -0.266908735 0.948241055 -0.15711762 
0.0172850639 2.09379244 0.920025766 -0.873441398 -0.272757113 0.399796426 
-0.185996786 2.72563553 0.0285183582 -0.297739476 0.947296619 -0.110476874 
0.710326612 2.12659073 0.766287982 0.983922958 -0.168355659 -0.0034034634 
0.060475871 2.18308473 0.518413126 -0.771033645 0.0983893797 -0.627238512 
0.00447719963 2.11900735 0.610994875 -0.9309057 -0.044677943 -0.360751212 
0.00726386765 2.05347943 0.859467208 -0.909924507 -0.298566461 0.283153057 
0.199270755 2.60084224 0.188300014 0.729188502 0.593612909 0.333566695 
0.476415217 2.33011007 0.448230445 0.35277009 0.328528672 -0.874190211 
0.67288655 2.38744831 0.677616239 0.875749648 0.353207827 -0.326085061 
-0.0665318295 2.70126414 0.24796465 0.0119327223 0.872564793 0.483149499 
0.555377483 2.56531835 0.843860686 0.548382163 0.826268852 0.12422549 
0.153634474 2.37114906 -0.229439408 0.602471352 -0.00473251566 -0.795370042 
0.397905439 2.14788198 0.381260902 0.16534996 0.147875339 -0.973934591 
-0.132942006 1.64278436 0.309318662 -0.69288528 -0.618167043 0.36942625 
-0.21939306 2.33386397 0.430040121 -0.399822503 0.12338613 0.907085717 
0.0983930528 1.99362981 0.401016623 0.576821387 -0.187195852 0.794906855 
0.26950568 2.3220911 0.239999488 0.909897327 0.0286102407 0.411100537 
0.651036739 2.10752201 0.556771636 0.860960066 -0.0563757271 -0.503633618 
-0.0151777538 2.10944223 0.828090847 -0.96368432 -0.196903303 0.171382174 
-0.433376431 2.41725397 -0.00693728821 -0.969730616 0.128514737 -0.201210409 
-0.246415362 2.00841284 0.39990136 -0.58586812 -0.17887859 0.789830208 
0.392279088 1.96490371 0.365789562 0.192717582 0.0117581608 -0.980482399 
0.0423174389 2.39593744 0.432425976 0.302343905 0.208473802 0.929112852 
0.0717915446 2.62970304 -0.164519921 0.37184158 0.69539845 -0.611409366 
0.36186409 2.34521508 0.428617746 0.0471464358 0.367417097 -0.927058041 
0.165911287 2.65745449 0.125039682 0.632770658 0.754625678 0.156393677 
0.579292655 2.26787639 0.490056813 0.631864607 0.205895558 -0.745972157 
0.124909386 2.64080787 0.241205484 0.528273225 0.702122569 0.475715011 
0.203239381 2.53230166 0.261591762 0.736217797 0.424101233 0.523275375 
0.577357709 2.22962666 0.478831112 0.633852661 0.157631785 -0.756792486 
0.0194026176 2.25307941 0.457052112 0.251219213 0.0486513861 0.965285659 
0.247746527 2.54323626 0.157961622 0.858759403 0.441984534 0.249993205 
-0.393390834 2.56095409 0.0453894585 -0.869728804 0.486085534 -0.0519915558 
0.236735716 2.11161661 0.386799693 -0.29855299 0.119700618 -0.945779622 
0.379591197 2.22893023 0.393690705 0.103515752 0.226703897 -0.968268216 
-0.213907614 1.75355887 0.314975411 -0.760931253 -0.470699191 0.444179237 
-0.442902863 2.33732533 0.1277031 -0.990101099 0.0126212388 0.128098235 
0.414492369 2.62404561 0.805846572 0.17812261 0.981523395 0.0308674239 
0.548594952 2.4859128 0.586298406 0.544551134 0.602433503 -0.581606209 
0.594353914 2.53729081 0.78076458 0.663341284 0.742625952 -0.0544610843 
-0.00848137122 2.44228506 0.433102399 0.166359782 0.28052485 0.944036603 
0.0616352744 2.47796154 0.905154586 -0.764004648 0.580526829 0.276266217 
0.00710756052 2.4078784 0.766301572 -0.911746621 0.395336509 -0.095528841 
-0.0111277774 1.97459936 0.446855217 0.213583961 -0.156979561 0.963088393 
0.0366643406 -0.498990238 0.0113088749 -0.132299989 0.0377000012 0.990500033 
0.555321217 2.24745584 0.465906769 0.57222271 0.191180035 -0.796339273 
-0.410173357 2.19127774 0.220884889 -0.937523484 -0.142660856 0.313719451 
-0.0212132186 2.04707122 0.458902836 0.162151307 -0.106520779 0.980320454 
0.380949885 1.88615537 0.36452654 0.181692094 -0.0397172421 -0.982107043 
0.617741346 2.50896335 0.745692372 0.731010675 0.660771251 -0.154763699 
0.563175738 2.19766879 0.462159634 0.604785919 0.128564641 -0.784360409 
-0.149453312 2.04995131 0.453041673 -0.254169911 -0.109548226 0.960354447 
-0.00220133923 2.00792313 0.44984597 0.234531641 -0.136125669 0.961455643 
-0.149116904 1.96087229 0.4397659 -0.283589423 -0.171026513 0.942565501 
0.460237473 1.92729771 0.388997972 0.435429126 -0.0525873303 -0.898106873 
0.0518672764 -0.451883048 0.0136131542 -0.920300007 0.248899996 0.301699996 
0.406882048 2.62156367 0.849167645 0.158987686 0.975602865 0.14176105 
-0.00649312697 1.89958811 -0.0822729245 0.205644757 -0.628413558 -0.748852074 
0.569013715 2.04797649 0.458189011 0.68121922 -0.0337421633 -0.730163634 
-0.33008191 1.93000722 0.239333048 -0.897950232 -0.369237512 0.235847801 
0.0247000474 2.30818415 0.451417208 0.260276198 0.103869803 0.958491862 
0.433807671 2.16648388 0.392003238 0.262425125 0.154767439 -0.951368213 
-0.199370787 2.43291759 0.417490184 -0.341639012 0.260602653 0.901188493 
0.110522576 2.61887431 0.28193152 0.489830852 0.642075717 0.586376667 
0.611661375 2.13169861 0.500942767 0.753189802 0.0173251331 -0.656741738 
-0.361861527 2.29904652 -0.157118425 -0.774473846 -0.136082575 -0.615865111 
-0.333147377 2.01233506 -0.0194042865 -0.76844573 -0.465406239 -0.436859488 
0.170108736 2.53327918 0.619464695 -0.475604057 0.724452019 -0.497264802 
-0.268123001 2.18014264 -0.202839538 -0.527180552 -0.34472096 -0.774886727 
-0.0776529908 2.64067054 0.327492028 -0.0179336444 0.701034904 0.709136009 
0.437147915 2.60104322 0.681153178 0.24262628 0.91421771 -0.317983419 
0.470413595 2.1440804 0.400793314 0.369669914 0.12146467 -0.920921743 
0.0554249622 2.71731949 0.143166468 0.330403358 0.922694921 0.1916686 
0.241145089 1.88711786 0.986958683 -0.279633105 -0.629062414 0.723899662 
-0.247729272 2.58167052 0.319978088 -0.475708067 0.547323883 0.685247421 
0.290769994 2.262573 0.404693931 -0.140444964 0.266230017 -0.951948404 
0.233389676 2.59758592 0.690680504 -0.301018953 0.904165447 -0.294316947 
0.213570371 1.71821272 0.788803339 -0.428494364 -0.725375652 0.536930501 
0.153311491 2.47180414 1.03912771 -0.50744611 0.577351689 0.635594845 
-0.200702861 2.16249132 0.444698691 -0.378579974 -0.0387807265 0.923963308 
0.509392321 2.56520367 0.663513422 0.438547015 0.813486099 -0.374166489 
0.0949632302 2.08667183 -0.173957616 0.455340713 -0.45895946 -0.762446821 
-0.019568691 2.24070287 0.877001107 -0.972057998 0.00463117985 0.228140235 
-0.0227582045 2.54096603 0.396012634 0.129111603 0.460269511 0.876826644 
-0.0332944505 2.72998905 0.173173562 0.0983942598 0.956135631 0.269174159 
0.253070414 1.77571392 0.381421924 -0.348965406 -0.129086345 -0.927405119 
0.286526322 2.33532763 -0.0381367952 0.952016234 -0.0389411375 -0.299197257 
0.172181413 2.4194777 0.352339894 0.646952093 0.217388421 0.729809642 
0.201665863 2.42606831 0.320210934 0.725608706 0.220211774 0.649155438 
-0.108175904 2.12472153 0.466627449 -0.112380214 -0.0510082766 0.991393209 
-0.260005236 2.2615037 0.415159374 -0.52006042 0.0334826298 0.852330208 
0.235769823 1.89063501 0.37805748 -0.358632147 -0.0395688564 -0.931926131 
0.375220895 1.75498843 0.375839651 0.227498278 -0.154345959 -0.960837543 
0.238562316 2.57114649 0.62560457 -0.290651053 0.82729131 -0.479709059 
0.00730427308 1.8714186 0.420322835 0.331468821 -0.240498513 0.9121207 
-0.237469748 2.36610889 0.416137964 -0.445634395 0.160368502 0.879087687 
0.0314478055 -0.527830124 0.0168452039 -0.92049998 0.246899992 -0.3028 
0.077840656 2.00604701 0.956864297 -0.718104839 -0.429782093 0.545936227 
0.471790075 1.80365157 0.885601997 0.410779864 -0.690400243 0.595038235 
0.385180742 2.51475334 0.53331548 0.104773685 0.680352926 -0.723836422 
0.486315608 2.06737208 0.401104569 0.441335201 0.0465380289 -0.895606399 
-0.200914741 2.45377612 -0.273715168 -0.350525588 0.196740434 -0.912950099 
0.478255719 1.97542167 0.396054149 0.462800562 -0.0257045235 -0.884930134 
0.256949693 2.59148312 0.655318856 -0.239676833 0.885363519 -0.394218504 
-0.379661411 2.55683637 0.166461751 -0.832170606 0.476863623 0.273728788 
0.111241184 2.09127378 0.410204917 0.558513343 -0.115809046 0.819986463 
0.360375673 2.59185982 0.631854951 0.0379342325 0.885734558 -0.458357513 
-0.205247685 2.25721598 0.442875057 -0.371538311 0.0446687602 0.927010953 
0.612495422 2.38503504 0.571984708 0.711788177 0.37475732 -0.592084169 
0.142459333 1.7092706 0.524818122 -0.862461746 -0.429475129 -0.264110416 
0.484290302 2.55242205 0.616581976 0.372113794 0.776497841 -0.50449121 
0.320674419 1.69198883 0.381359935 -0.0310098529 -0.214019358 -0.975493193 
0.559201658 2.29750395 0.482547164 0.574529886 0.254586935 -0.777113914 
-0.194470197 2.66151667 0.271160185 -0.332389534 0.759319007 0.554815948 
0.0906919539 2.04747367 0.475492179 -0.737524211 -0.0141932713 -0.674209595 
0.0647088587 2.1099565 -0.202641711 0.368607938 -0.441439658 -0.817111075 
0.598165452 2.29731774 0.516476452 0.67715764 0.236495525 -0.694125414 
0.0177813731 1.99528968 0.619968951 -0.945517182 -0.196715176 -0.255058944 
0.411020905 2.00031185 0.370752841 0.241160542 0.0299072675 -0.968977451 
0.117216989 2.68435168 -0.0193202384 0.487638295 0.839310169 -0.233987555 
0.0477923304 2.70702505 0.18878141 0.314045936 0.891772747 0.318987012 
0.1981619 2.20502543 0.417104483 -0.395763934 0.192184418 -0.896645248 
-0.108385496 1.71485257 0.377953321 -0.259832084 -0.414396524 0.871299207 
0.579409122 2.39080167 0.540429056 0.623296142 0.395830631 -0.672779441 
0.456617385 1.81230783 0.400685698 0.517178357 -0.158857152 -0.839871168 
0.294530928 2.60001111 0.656827688 -0.138371304 0.909324229 -0.387880415 
0.33686775 2.60460353 0.659436405 -0.0248339139 0.922461569 -0.378903091 
0.24677296 2.07281876 0.379438907 -0.27451396 0.0927781686 -0.956669807 
-0.111744717 2.19550037 0.467939407 -0.116961934 0.00335485302 0.992004216 
0.223020285 1.78235316 0.394211859 -0.476086795 -0.14241612 -0.86742717 
-0.263612807 2.33664536 0.406157762 -0.51804179 0.117014684 0.845442235 
0.067776978 2.64813995 0.279869556 0.374318361 0.721549034 0.58030194 
0.38253963 1.92600346 0.363734215 0.172727659 -0.0118572814 -0.984722733 
0.577985883 2.4252317 0.562127411 0.620757222 0.463597566 -0.629506946 
0.418735921 2.36945033 0.446067452 0.197187275 0.397212297 -0.895094335 
0.348639101 1.96241438 0.360568911 0.0474517308 0.0211433582 -0.997505903 
-0.0838452801 2.01959062 0.459250331 -0.0432676896 -0.121444352 0.990482271 
0.253568918 2.55295491 0.0246303566 0.875657499 0.464486361 -0.10801845 
0.406994909 2.03932452 0.371537596 0.216315851 0.0596395731 -0.973436952 
0.309918195 1.64975941 0.392772764 -0.103721015 -0.265940547 -0.957683921 
-0.170108959 1.81910419 0.394650787 -0.466817528 -0.305398613 0.829565346 
0.543264151 2.27572918 0.4655644 0.536016226 0.233365566 -0.809345722 
-0.131601438 1.67342043 0.165206179 -0.368615627 -0.799626291 -0.473247081 
0.2580477 1.85685718 0.372243106 -0.2883524 -0.0563308671 -0.954772234 
-0.0668741986 1.73566246 0.392167956 0.0260644462 -0.377257347 0.924732447 
-0.423451394 2.33812737 0.207954854 -0.939636409 0.0412671044 0.334032714 
-0.0547472388 2.22661233 0.469604403 0.045826178 0.0303825624 0.997282267 
0.576911986 2.31520987 0.503567338 0.619689286 0.273346156 -0.733237445 
0.454081357 2.04748416 0.385926932 0.35534516 0.0470425524 -0.933169246 
0.309750259 1.97118449 0.361282915 -0.0840095729 0.0302778315 -0.995654106 
-0.0635408908 2.12668276 0.468715459 0.022541862 -0.0481357053 0.997570753 
-0.0122483885 2.23419785 0.662296712 -0.950823545 0.0844574347 -0.29779923 
0.150285214 2.11920595 0.428992331 -0.544627309 0.0945570767 -0.83208102 
-0.112317361 2.65480685 0.309934884 -0.111442238 0.739449978 0.661414385 
0.304468662 2.62520289 0.843546927 -0.10652145 0.984925449 0.127846897 
0.47956267 2.28935313 0.435781121 0.365433544 0.273715317 -0.887976944 
0.225472614 1.74001408 0.401225865 -0.506373227 -0.193507373 -0.839091301 
0.13660948 1.97999597 0.998977184 -0.559028149 -0.495975912 0.663273394 
0.40991199 2.61563611 0.711249053 0.168857232 0.955986023 -0.229621589 
0.170137003 2.1827786 0.426653296 -0.475868762 0.161768511 -0.863006651 
-0.163474441 2.72866273 0.136354387 -0.240054175 0.953721225 0.170474187 
-0.0293769352 2.23394966 0.759337425 -0.995662987 0.0388736352 -0.0601592474 
0.0682433918 2.05456281 0.501672626 -0.794435143 -0.0310032144 -0.605916798 
0.196174562 2.38823795 0.481279194 -0.396049201 0.42358771 -0.812433481 
0.263643235 2.62130451 0.775382698 -0.213592216 0.973388851 -0.0519893505 
-0.118619777 2.58969235 0.36648047 -0.128111362 0.569861472 0.809759796 
-0.423404813 2.23805523 0.19727917 -0.955878735 -0.0999996737 0.270762622 
0.175171986 1.93057704 0.407619536 -0.547695279 -0.0448898897 -0.834233284 
0.348264992 2.30663228 0.413938135 0.0129361218 0.317814231 -0.947342873 
-0.0191727746 1.64737189 0.206170589 0.398854226 -0.821419358 -0.406188846 
0.0445835181 2.4311924 0.938585103 -0.813415527 0.450342447 0.364413112 
0.0444719531 1.91952682 0.590465188 -0.927258849 -0.252209246 -0.272600204 
0.35115695 1.81345582 0.36500296 0.0907020047 -0.086232096 -0.991564333 
0.380054384 1.84340823 0.366987795 0.196919784 -0.0724029243 -0.976769626 
0.0415580533 2.22020721 0.549690306 -0.813237488 0.126367733 -0.567323089 
0.542080462 1.87384593 0.904010952 0.583871067 -0.607494593 0.537985444 
0.420661002 1.92150366 0.373507828 0.306247681 -0.0323748924 -0.950299263 
0.0383258909 2.680861 0.252141714 0.293229669 0.814523518 0.499888957 
-0.00506308535 1.906865 0.432657629 0.261780739 -0.207068637 0.942156076 
0.297157317 2.45654011 0.489533663 -0.129793853 0.554929435 -0.818762779 
-0.0607376061 1.77752042 0.0212611724 0.0409291014 -0.715723515 -0.695624113 
0.508471906 2.21693707 0.430617392 0.454821944 0.178243577 -0.871470273 
0.439732194 2.28538084 0.420802027 0.2596654 0.278614998 -0.922913074 
0.251626968 2.44317269 0.491030246 -0.250808954 0.526820004 -0.809838414 
0.6462515 1.98201859 0.588939369 0.909687877 -0.22808224 -0.343522131 
0.301995546 2.62810826 0.799041629 -0.112649105 0.991926908 0.0133507596 
0.193046719 1.7667917 0.417406976 -0.617478609 -0.192049041 -0.762222171 
-0.26672411 2.40126657 -0.249100864 -0.526690066 0.0624626055 -0.846688867 
0.195180073 1.64901614 0.474178791 -0.782286406 -0.454859316 -0.423602611 
0.335837394 1.77078378 0.36847502 0.0343967117 -0.12145853 -0.9909091 
-0.0715690628 2.19508219 0.470593989 -0.00161751849 0.00473235827 0.99962008 
-0.438570231 2.38100481 0.14241679 -0.978424907 0.0915629566 0.178780824 
-0.0629031658 2.74548173 0.054925397 0.0211708248 0.998803079 -0.0396905094 
-0.10018979 2.68608785 0.272170156 -0.0782919303 0.828385174 0.553822458 
0.336359292 2.63044739 0.793009043 -0.023803601 0.998023689 -0.00227218308 
0.37210238 2.62230253 0.87019527 0.0687570944 0.977657378 0.196359739 
0.243303671 2.21425867 0.402346551 -0.270815849 0.211278886 -0.93871963 
0.389243603 2.43464971 0.473928779 0.116473898 0.510202527 -0.851557553 
-0.0906983241 1.69660962 0.114370517 -0.103024766 -0.788663864 -0.604539394 
0.288568914 1.83066344 0.366157562 -0.173366576 -0.0677863806 -0.982492328 
-0.229947686 2.14165568 0.429575473 -0.469557106 -0.0649144351 0.879313111 
0.205126688 1.91326869 0.391006082 -0.456526577 -0.0386567041 -0.887668312 
-0.144779041 1.73272693 0.370857894 -0.458211303 -0.416351914 0.783937216 
-0.106399991 2.3343091 0.459904969 -0.0955516249 0.137426898 0.985733151 
-0.229298264 2.08829212 0.424691647 -0.488491327 -0.107154757 0.864708662 
-0.0685294345 1.90505421 0.441287071 0.009920137 -0.198720425 0.979464471 
0.479022145 2.20471263 0.413946509 0.37811321 0.176703468 -0.908604026 
-0.149186894 1.77136314 0.386846989 -0.422759354 -0.35643065 0.831830978 
-0.139949039 2.73959351 0.078289941 -0.178347856 0.983383 0.0181605108 
0.00701318542 2.21213126 0.950912118 -0.901681781 -0.0776440576 0.422180235 
-0.0711158216 2.42772245 0.442638069 -0.000292403449 0.261247039 0.964455962 
-0.195426792 1.94575202 0.417696923 -0.457589209 -0.200555623 0.864959955 
-0.255334049 2.51529288 0.3574799 -0.492620915 0.400064111 0.770016491 
-0.357948512 2.36324358 0.320513695 -0.765428722 0.119043492 0.631109953 
0.211506382 2.56390357 -0.0880811661 0.759088397 0.498747587 -0.412519425 
-0.409347743 2.2312007 0.236290514 -0.923130512 -0.0896778554 0.369605988 
-0.235725135 2.23653793 0.429472327 -0.459402263 0.0170972571 0.887489557 
-0.0363615528 2.41148305 0.445062071 0.0923904553 0.236884013 0.966121256 
0.171165377 2.57356429 0.699539185 -0.469879806 0.837239742 -0.275504053 
-0.265550405 1.81297302 0.273612052 -0.847943783 -0.446295768 0.282424182 
0.175985441 2.36806846 1.11495602 -0.457398504 0.284628808 0.839537621 
-0.233894229 2.40747333 0.408900499 -0.434087515 0.218177646 0.871795177 
0.0975873545 1.82892454 0.518873274 -0.870222807 -0.269751847 -0.410360783 
-0.31063211 2.11087751 0.364664406 -0.714081824 -0.132638693 0.685925901 
0.193185508 2.06538796 0.399351299 -0.435977399 0.0702501982 -0.896654606 
0.417279154 2.56567526 0.600412309 0.191343799 0.812318385 -0.548030794 
-0.268365622 2.38153672 0.39586705 -0.526626229 0.173460513 0.830687761 
-0.146031156 2.19820881 0.462131798 -0.21481505 0.00190605922 0.975412726 
-0.19330284 2.29838824 0.443990916 -0.333386481 0.089114219 0.936864853 
-0.202681363 2.62697005 0.307264 -0.355324 0.663903832 0.65471971 
0.417330593 2.11693001 0.3810184 0.226918891 0.116818994 -0.96557498 
0.0478389859 1.72963142 0.328256577 0.704366446 -0.484633863 0.517069995 
-0.102858238 1.63358998 0.333943635 -0.476291358 -0.521399498 0.707203269 
0.0200977121 2.4279778 0.740972936 -0.877539396 0.447035998 -0.165002823 
0.26346302 2.20205021 0.238189578 0.922240973 -0.122179061 0.363619864 
0.332249343 2.18985128 0.383966327 -0.0240837932 0.193666488 -0.979417443 
-0.120324373 2.48011422 0.422237903 -0.131347403 0.344685256 0.927327633 
-0.288689047 1.96720147 0.347312391 -0.750754595 -0.250651121 0.610630274 
0.452431917 2.53897977 0.578450382 0.286253899 0.739753962 -0.608061373 
-0.054728929 2.67239499 0.291073769 0.0437951572 0.789154291 0.607686996 
0.249449223 2.50731063 0.541071296 -0.260197729 0.662469149 -0.701260507 
-0.112547979 1.83882272 0.422053307 -0.190003991 -0.257551074 0.946603775 
0.0474141575 2.44929385 0.686734378 -0.803796172 0.505104125 -0.310480535 
0.144049004 2.66312933 -0.0323552079 0.561922193 0.781167328 -0.267004013 
0.155775309 2.36171722 0.490742236 -0.502816498 0.372959465 -0.777756393 
-0.120357014 1.79761994 0.407997757 -0.250057489 -0.304200798 0.918720067 
0.215417027 2.02260637 0.386862427 -0.380599529 0.0466311164 -0.922369719 
-0.142757848 2.73637414 0.0260653403 -0.186755553 0.975297928 -0.115896672 
0.264675975 2.11038566 0.159929827 0.957571149 -0.26031822 0.113483056 
-0.244420901 2.66926193 0.218415827 -0.46525377 0.783228517 0.409612834 
0.166820168 2.58543038 0.827673972 -0.468795598 0.878547788 0.0813472047 
0.309864163 1.92804706 0.360499233 -0.0836914331 0.00192531664 -0.996175289 
0.295835286 1.86225617 0.36366111 -0.139430717 -0.0440632291 -0.988168001 
0.0247136522 2.41305161 0.69648844 -0.861711323 0.418506324 -0.277499497 
-0.230295539 2.45054317 0.398409396 -0.423907161 0.285102338 0.857314885 
0.184666097 2.31350923 0.454198003 -0.425515115 0.311765641 -0.847789824 
-0.324123949 1.94855118 0.0420491025 -0.798149347 -0.49476546 -0.340214849 
-0.120616607 2.72779369 0.176533371 -0.12961936 0.950092375 0.278848171 
-0.178032324 2.39807439 0.43404454 -0.285511792 0.212352246 0.933904171 
-0.102182001 2.7433157 0.0429154262 -0.0806451216 0.99316597 -0.0728930607 
-0.359778702 2.10604882 0.298335969 -0.849660397 -0.180781975 0.493185043 
0.16244252 1.78188765 0.442289859 -0.718188226 -0.21548681 -0.660565197 
0.084384501 2.28758883 0.517846167 -0.693699598 0.241512462 -0.677936077 
-0.168397248 2.25012517 0.455492646 -0.270941794 0.0449273288 0.960685074 
0.114355095 2.05078077 1.0273 -0.613028884 -0.401274621 0.678676605 
0.532358944 1.8205415 0.849432707 0.594804525 -0.64176935 0.481869936 
0.239555016 2.25090837 0.412628919 -0.279649913 0.248880103 -0.926572144 
-0.0733447969 2.30442715 0.464824557 -0.00637632981 0.106206745 0.993592441 
0.0174086802 1.70970118 0.346104115 0.59593159 -0.47844708 0.644376338 
0.0794140175 2.52040863 0.801302791 -0.716986775 0.693625927 -0.00323140062 
-0.191219389 2.47652459 0.405955493 -0.320120722 0.333849013 0.884394407 
0.0718367398 2.43657708 0.623070598 -0.734578431 0.484787405 -0.472186774 
-0.305347264 1.94304299 0.310958147 -0.822741807 -0.29919064 0.481351078 
-0.00023152036 2.5041039 -0.27645427 0.190236121 0.337797582 -0.918778181 
-0.242468491 2.69791746 0.140424609 -0.452105105 0.868731499 0.189667702 
0.239001617 2.36748695 0.453721374 -0.281116277 0.39714247 -0.872608185 
-0.283088803 2.10354471 0.389117479 -0.639774084 -0.121431358 0.757324994 
0.22771354 2.1221354 1.12810826 -0.313829571 -0.319878966 0.893213272 
-0.186794072 1.78186917 0.367276222 -0.592445493 -0.371181428 0.714190483 
0.238444492 2.60108614 0.896700203 -0.277338773 0.922524214 0.265656918 
-0.304638207 2.4598062 0.346329778 -0.622209847 0.287819266 0.726109564 
0.215595931 1.66773403 0.433436513 -0.660134554 -0.342488587 -0.667571485 
0.163496733 2.50147295 0.585729778 -0.491847813 0.644209981 -0.583192408 
0.212044522 2.479532 1.06956279 -0.348351896 0.60378027 0.713952422 
0.259657741 0.7548334 0.215756223 0.876999974 -0.204600006 0.434700012 
0.154600978 1.96420646 0.42021358 -0.59417522 -0.0326900147 -0.802913308 
0.0285010654 1.95599508 0.61288929 -0.940900445 -0.233916312 -0.242416009 
-0.174010336 2.71499276 0.179943159 -0.270957768 0.91452992 0.292279601 
0.330726355 2.62130499 0.71313554 -0.0399992764 0.971261263 -0.223438621 
0.0640444383 2.35632777 0.573028982 -0.747984946 0.333309501 -0.570984781 
-0.192479685 2.56209469 0.363321275 -0.326036751 0.504710555 0.795979261 
0.159860805 1.89400434 0.421797782 -0.622479618 -0.0898804814 -0.776266277 
-0.395756185 2.30842733 0.271690398 -0.871363819 0.0231478196 0.488191307 
-0.154910669 2.28609657 0.45666042 -0.22986865 0.0815273374 0.96839416 
0.225819618 2.3231883 0.440116525 -0.315424144 0.332114756 -0.887319922 
-0.239679888 2.64307618 0.264230996 -0.454917908 0.707888603 0.538105488 
0.0309538264 2.28586316 0.586814165 -0.83534503 0.205287069 -0.506900311 
0.341165841 2.2695179 0.402507573 -0.00411269674 0.273681939 -0.960914969 
0.0136022922 2.35531545 0.660498142 -0.884407699 0.301021099 -0.352978617 
0.0661749914 2.50301886 0.840164244 -0.752463818 0.6470384 0.101226956 
-0.180189386 2.72965503 0.0657480657 -0.282335788 0.957601845 -0.0143539021 
-0.388367116 2.39576459 0.270326197 -0.844203174 0.152474195 0.512145936 
-0.385107338 2.49504423 0.225468636 -0.84101373 0.333982021 0.421840847 
-0.163500145 2.08495402 0.452463359 -0.288919628 -0.0881252736 0.952405095 
-0.147966325 2.36377001 0.448293656 -0.206492782 0.17077449 0.962217212 
-0.273555726 2.66138506 0.195925757 -0.543512404 0.761968732 0.349406958 
0.12158528 2.51887107 0.655808151 -0.606588006 0.685558438 -0.399157107 
0.114540964 2.28757477 0.490579933 -0.613672376 0.255963475 -0.745544255 
0.195845559 2.58391595 0.901048362 -0.387007475 0.877758741 0.276933998 
0.177502722 1.9550333 0.292450458 0.851623893 -0.305514991 0.42332381 
0.181535497 1.7329663 0.439094901 -0.707122743 -0.264209092 -0.655355215 
-0.286278486 2.49830484 0.343959391 -0.574724615 0.362524331 0.730508387 
0.100324973 2.2391243 0.488482773 -0.6557585 0.189068139 -0.728904128 
-0.267787546 2.17089796 0.408307433 -0.567177713 -0.0548512936 0.820089221 
-0.317792296 1.98338783 0.313004553 -0.822295904 -0.267349154 0.500146627 
0.123039506 2.42554474 0.553699911 -0.59439683 0.475790918 -0.645099461 
-0.38303414 2.35086012 0.288757145 -0.832518876 0.0887835547 0.545616746 
-0.183997095 2.03657031 0.439810365 -0.370025814 -0.128443033 0.919239104 
-0.428960234 2.47142744 0.0882615671 -0.960228682 0.263491958 0.0569987595 
0.275874078 1.89280212 0.366091967 -0.210383788 -0.0253238864 -0.976249278 
-0.19294925 2.72490859 0.102310225 -0.315379202 0.94478029 0.0803624541 
-0.333679765 2.60309434 0.199379057 -0.708673358 0.59965843 0.363493055 
0.0546571352 2.29279327 0.554406226 -0.772156894 0.231463447 -0.589915097 
-0.227028176 2.48958111 0.385952264 -0.415778458 0.352548301 0.836755753 
-0.273703992 2.29717612 0.404275537 -0.550688386 0.0682268441 0.831084251 
0.281263173 2.19113541 0.389092922 -0.166475296 0.19418481 -0.965697825 
0.245539084 1.96179879 0.373954386 -0.300460398 0.0140073989 -0.952470422 
-0.281084538 2.01516795 0.371811032 -0.68830204 -0.197635382 0.69652462 
-0.303021491 2.62365651 0.219704375 -0.625826359 0.655418038 0.418088377 
0.222748116 1.70115447 0.413741112 -0.568427145 -0.259970844 -0.779486716 
0.164986446 2.15073371 0.423876494 -0.4956218 0.129074335 -0.857548594 
-0.232210696 2.70455217 0.00875219051 -0.416639507 0.892483175 -0.161757156 
-0.390745193 2.18811512 0.26726386 -0.890937388 -0.121110901 0.435753286 
-0.142139375 2.40102553 0.442373127 -0.189787686 0.219790071 0.956233382 
-0.206312284 2.71397901 0.145046994 -0.354197502 0.91350913 0.197542429 
0.276165634 1.99746001 0.36691907 -0.192912176 0.0448828004 -0.979598165 
-0.123528965 1.68124008 0.353317499 -0.44657737 -0.475824833 0.756911933 
-0.221844167 2.52860641 0.369889051 -0.4034639 0.429855734 0.805765748 
0.155473754 1.67416024 0.561276317 -0.835322499 -0.544173956 -0.0638696477 
-0.291482925 1.89137805 0.299489945 -0.83480078 -0.349301994 0.423371434 
-0.0983807519 1.88386965 -0.0768835768 -0.0888890848 -0.643640339 -0.760021567 
0.201693624 2.50981331 0.567409396 -0.389102459 0.666551828 -0.632654309 
-0.222984821 2.04626918 0.422268808 -0.489352763 -0.136556625 0.860179782 
0.0230424777 2.06405234 0.577206016 -0.905537426 -0.0837970525 -0.412577271 
0.201998383 1.98199844 0.391096115 -0.435981244 0.0113598546 -0.899708807 
-0.293145239 2.24614811 0.392724842 -0.613562882 0.00613499014 0.789048374 
0.232300773 1.8251065 0.383948654 -0.405810833 -0.0936011821 -0.908686042 
0.610864222 2.47755694 0.657629073 0.713243961 0.576200485 -0.392601341 
0.240957439 2.14552593 0.390297145 -0.282603294 0.148779601 -0.946893275 
-0.165642396 2.71683574 -0.0406088419 -0.244652033 0.924706936 -0.289560169 
0.278034508 2.60796928 0.906760454 -0.17723152 0.940461934 0.289957225 
-0.235113189 1.78917503 0.313883483 -0.783501029 -0.428726465 0.447772712 
0.17216143 1.81371379 0.424345285 -0.648154497 -0.159359068 -0.743432939 
0.163470298 2.40130091 0.506911635 -0.484095931 0.439925313 -0.753683388 
-0.0295442659 2.72567773 -0.0424253717 0.0914904922 0.949387074 -0.294759989 
-0.335199744 2.55877399 0.25272581 -0.71111989 0.486019462 0.504051089 
0.0915414989 2.4228158 0.584189773 -0.679282963 0.462781608 -0.567138255 
-0.275473326 1.85177147 0.296808839 -0.832331002 -0.385193288 0.397321522 
-0.29630962 1.84645617 0.178284839 -0.864405215 -0.499432236 -0.0443459079 
0.102821015 2.48601985 0.634772301 -0.655468166 0.601885915 -0.451820016 
-0.38308984 2.44461107 0.260697484 -0.831440091 0.237522051 0.50133425 
-0.235030025 2.55613852 0.346266717 -0.440180182 0.488968641 0.750053942 
-0.443589151 2.29033947 0.109097019 -0.994371057 -0.0672673509 0.0646620467 
-0.414596826 2.14262486 0.162177593 -0.963243723 -0.225784108 0.136480778 
0.157714948 2.28417802 0.459209681 -0.498622358 0.267423332 -0.822383642 
0.2276804 1.63031185 0.443130165 -0.684071958 -0.416531622 -0.598148108 
0.162159666 2.24650025 -0.20191434 0.620344937 -0.241369933 -0.74516207 
-0.417720616 2.27599263 0.223526821 -0.933171451 -0.0407004096 0.352828056 
-0.437499911 2.41829085 0.119069546 -0.977566421 0.155415803 0.127953351 
0.197121933 2.56842399 0.654846191 -0.401800513 0.820903838 -0.399432898 
0.0737482458 2.46733308 0.656507075 -0.733246565 0.552826703 -0.392330676 
-0.424120218 2.49072623 0.049291037 -0.950128317 0.303711534 -0.0438294932 
-0.327293932 2.41536474 0.341142267 -0.681822419 0.207158953 0.699851513 
7.93488434e-05 1.79493558 0.399588585 0.360302299 -0.317446828 0.876169682 
-0.0433829539 1.94621682 -0.126425967 0.0831441283 -0.600388229 -0.794626951 
-0.184029311 1.70172143 0.305050433 -0.740449607 -0.559495509 0.370162785 
0.0899698436 2.50179124 0.680314183 -0.691922545 0.639484465 -0.333100915 
0.254508585 1.59860718 0.43647629 -0.63175112 -0.427764654 -0.645560086 
-0.33147487 1.96168244 0.271290541 -0.877535284 -0.317414165 0.357112885 
-0.26116389 2.07846618 0.402903199 -0.588670254 -0.130113482 0.797474623 
-0.21647419 2.67341375 0.238094777 -0.390349329 0.794076979 0.462713182 
-0.0230682306 2.12243223 0.46501869 0.145179078 -0.053775683 0.986710191 
0.131990343 2.56330609 0.831964433 -0.565857291 0.817142427 0.0879807025 
0.0388863459 2.45562601 0.729216099 -0.828293622 0.518343568 -0.198722363 
-0.307988733 2.66346931 0.0584983751 -0.62732172 0.775993466 -0.0248820595 
0.0721921772 2.21906614 0.511879802 -0.733468831 0.148855418 -0.66099894 
-0.326609343 2.04549766 0.327385128 -0.798949718 -0.209684938 0.561540127 
0.141345918 1.92946601 0.433425725 -0.65714848 -0.0749912411 -0.749084294 
-0.353812099 2.61518884 0.105655804 -0.760815442 0.635287821 0.108841658 
-0.260295063 2.68069983 0.167742297 -0.504055619 0.818471193 0.268325269 
-0.222238556 1.73204899 0.21115239 -0.777506053 -0.621396065 -0.0873702914 
-0.429190606 2.4234271 0.160548389 -0.954816043 0.173961073 0.23690705 
-0.2589598 2.69509339 0.0399860367 -0.488920808 0.865963459 -0.079194203 
-0.0457988344 2.70736527 -0.0944270566 0.0607541017 0.905817747 -0.41836375 
-0.308364123 2.01373601 0.340900034 -0.770299792 -0.223217994 0.596697688 
0.191723675 1.88457906 0.400251269 -0.519937754 -0.0706910565 -0.850212634 
0.236154705 2.61456895 0.810967267 -0.283582151 0.956476033 0.0428584628 
0.0485552177 2.4262743 0.65333569 -0.797230065 0.4560875 -0.391865969 
-0.00374072511 2.72939849 -0.015040488 0.162768453 0.95789212 -0.228512675 
0.0931756049 2.38761377 0.557284534 -0.671625137 0.397532284 -0.622600973 
-0.277679443 1.92055368 0.339692593 -0.761382103 -0.290157676 0.577887475 
0.271142423 1.5621599 0.44671759 -0.685763061 -0.512630224 -0.515425563 
0.202963993 1.95199263 0.390999347 -0.445439279 -0.0104405992 -0.894371092 
0.126509383 2.12817717 0.446531445 -0.608247519 0.0893872827 -0.788282037 
-0.326669484 2.63934374 0.132987171 -0.686236382 0.70246309 0.180767566 
0.12777032 1.89552009 0.451269478 -0.72429049 -0.124150082 -0.676669538 
-0.439196676 2.3013556 0.150707081 -0.982724428 -0.0358032808 0.175111532 
-0.342368513 2.29553509 0.345783949 -0.73342669 0.038042482 0.676684678 
0.0673041791 2.01959467 0.506788194 -0.814743102 -0.0696152002 -0.573439598 
-0.372800618 2.14335322 0.287711293 -0.864424944 -0.153486758 0.475777566 
0.0818904638 2.33375096 0.539597929 -0.699468195 0.305903226 -0.644536853 
0.166922793 2.57856393 0.868074298 -0.465761095 0.861935496 0.188999549 
-0.338367671 2.44523978 0.319337726 -0.711867213 0.25442183 0.652451873 
0.0377617218 2.16856217 0.547534108 -0.833574414 0.060678754 -0.546701133 
0.142196342 1.82248914 0.45242852 -0.744378626 -0.19044289 -0.639252722 
-0.319354534 2.59132791 0.240644217 -0.67007041 0.568021536 0.474831194 
0.0872702971 1.95144415 0.489744306 -0.801546514 -0.117513575 -0.584448218 
-0.108035706 2.72413373 -0.0487044826 -0.082677193 0.945519328 -0.308381557 
-0.0387721732 1.60806954 0.312969297 0.711921215 -0.582157373 0.391822338 
0.117280684 1.78824973 0.505703628 -0.855887949 -0.29772675 -0.421164483 
-0.373442829 2.59389496 0.0636259988 -0.81457454 0.576743126 -0.00369600416 
-0.336090088 2.52197909 0.281401694 -0.710428894 0.402585149 0.57336241 
0.0979906842 2.53639698 0.831090093 -0.66236186 0.740967631 0.0806813091 
0.159526065 1.71442318 0.479429096 -0.813331604 -0.353449821 -0.460849106 
0.109437205 1.92229307 0.466952771 -0.759407282 -0.118923992 -0.638875484 
-0.363800675 2.17773867 0.311736584 -0.825206816 -0.107415944 0.552355051 
0.045321811 2.05585551 0.535908341 -0.853824794 -0.0587435998 -0.515217602 
-0.0667737424 2.73220968 -0.0311500933 0.00938835926 0.961541653 -0.268905312 
-0.0692825094 2.69726539 -0.11508505 0.0045974832 0.877575219 -0.475397319 
0.100519679 1.8762728 0.491004139 -0.821493506 -0.188681126 -0.536138237 
-0.221040249 1.81425178 0.351704121 -0.691118717 -0.359917641 0.625416875 
-0.00460688211 2.32579446 0.689601183 -0.931968212 0.234501362 -0.269378841 
-0.00542038213 2.19178724 0.636022627 -0.938480854 0.0357322916 -0.340197355 
-0.252486229 1.82176328 0.313191831 -0.797396302 -0.396069884 0.453876495 
0.0816463307 2.52005863 0.765196145 -0.712768793 0.690635145 -0.102196433 
-0.380886585 2.25925088 0.295496762 -0.84292233 -0.0282260291 0.534242809 
-0.356485039 2.56514978 0.210504532 -0.769403815 0.500119507 0.392032564 
0.0649832338 1.98355079 0.515899956 -0.840833068 -0.11365138 -0.527282715 
0.108470947 2.01578522 0.457824886 -0.702983379 -0.0275817756 -0.709314704 
-0.43415767 2.34572053 0.171647191 -0.967094183 0.0407165959 0.243373543 
-0.360387683 2.52854466 0.241409615 -0.777028799 0.413069248 0.469520032 
0.00371565553 1.16383159 0.249059781 -0.134599999 -0.241099983 0.961099982 
0.0591510981 2.3968482 0.607460737 -0.764530897 0.402100742 -0.499865979 
-0.444463432 2.37475491 0.0941549838 -0.994391143 0.0673603341 0.0526731163 
-0.386461407 2.5714643 0.0912384987 -0.851067305 0.514336586 0.071698226 
0.0854751319 1.91343391 0.502310157 -0.833757639 -0.166350678 -0.524241388 
0.00747426692 2.21802974 0.609672248 -0.902316689 0.089388974 -0.41828239 
-0.0263532493 2.28151846 0.768222809 -0.989462554 0.122315913 -0.0572043359 
-0.413879842 2.374578 0.226184294 -0.912458777 0.104350716 0.392391086 
0.0599718802 1.92079067 0.546469569 -0.89327991 -0.206389278 -0.398026943 
0.112468243 1.96165514 0.457620054 -0.722986519 -0.0746460855 -0.686047375 
-0.394186467 2.15272093 0.247218654 -0.913192451 -0.168835282 0.368513346 
-0.238218978 1.87216151 0.363012075 -0.680804193 -0.301766932 0.666765273 
0.0468832664 2.12638068 0.531226695 -0.82239604 0.0224456526 -0.566075981 
0.0248898901 2.13188004 0.567186117 -0.876848578 0.00251384825 -0.477729201 
-0.381573677 2.5298059 0.200540453 -0.835083961 0.411127925 0.362099946 
-0.18546389 2.71977639 -0.0061208331 -0.297308922 0.931966662 -0.199783593 
-0.405969024 2.14114523 0.205608517 -0.945768297 -0.20405817 0.251516521 
-0.415678889 2.4404211 0.193398356 -0.919282079 0.215014458 0.325969815 
-0.425622761 2.38979316 0.189039156 -0.943802595 0.119892731 0.301291823 
-0.429469436 2.29558444 0.190017313 -0.959753633 -0.0277528428 0.273591876 
-0.0150412507 2.34403896 0.775230348 -0.964960575 0.247366235 -0.0591433942 
0.225378364 2.58310604 0.935629725 -0.311188698 0.875923276 0.366408437 
0.152901039 1.75500071 0.464976639 -0.784231365 -0.27829209 -0.552747786 
-0.392021 2.2258625 0.273294419 -0.880471468 -0.0781911165 0.464817047 
-0.0253220983 2.16065431 0.725266039 -0.99079442 -0.0610196479 -0.105937526 
0.252905905 2.31306005 0.272761881 0.868460894 0.0298403502 0.492459834 
-0.00149451673 -0.623930216 -0.0109574785 -0.62379998 0.202900007 -0.754800022 
0.133743897 1.7925446 0.474653155 -0.803200245 -0.250545084 -0.538736701 
-0.309162825 1.89022601 0.253063023 -0.882292449 -0.392046839 0.256469905 
-0.372398347 2.0761385 0.25838542 -0.899426103 -0.232301399 0.368486196 
0.00989089347 2.03445792 0.622384608 -0.947305143 -0.153881997 -0.277496427 
-0.400662243 2.52029419 0.160359681 -0.886693478 0.384389728 0.254567385 
-0.375609547 2.29455733 0.305185765 -0.820849717 0.0183681045 0.570483685 
0.14185968 2.55856419 0.890691936 -0.533520103 0.808585763 0.246728808 
0.000718632247 2.25178242 0.632426977 -0.91613555 0.127662331 -0.379271626 
-0.0215452984 2.31384611 0.770938098 -0.979083478 0.184868813 -0.0614696369 
0.174863443 1.65403163 0.51942873 -0.825827003 -0.523511767 -0.204619497 
-0.387969285 2.11248779 0.240895301 -0.917407274 -0.210541934 0.334777623 
0.00918459706 2.31648588 0.644266903 -0.893558741 0.233231664 -0.378430039 
0.0326177329 2.03222752 0.563404858 -0.895907283 -0.107658222 -0.428430825 
-0.138011083 2.71121907 -0.0728304684 -0.174319342 0.909700334 -0.373763949 
-0.0838084444 1.60553575 0.325919807 -0.435206741 -0.476845145 0.761628389 
0.015579137 2.09436631 0.588353813 -0.911970675 -0.0578280166 -0.402698368 
0.0598963052 1.88974762 0.567743778 -0.912704706 -0.260957092 -0.311399668 
0.163176924 1.68192601 0.503904045 -0.83860606 -0.443229914 -0.316478014 
0.203192249 1.61195898 0.549260139 -0.736510336 -0.674311161 0.0283377022 
-0.389503032 2.08093953 0.210375488 -0.935578287 -0.259072125 0.235488638 
-0.287062168 2.67559862 0.0175812896 -0.565278471 0.813309431 -0.136201397 
-0.0152482549 2.34354496 0.822611094 -0.967785537 0.235757679 0.0625058264 
-0.137603417 2.72918129 -0.0168217793 -0.164072365 0.957130075 -0.231925696 
0.0243999083 2.44588637 0.785659313 -0.868348122 0.489748955 -0.0481006093 
-0.0208479203 2.2162385 0.69069469 -0.974210441 0.0418304577 -0.219642431 
-0.00483202981 2.37964964 0.825269043 -0.943789124 0.319595098 0.0631174445 
0.0104163121 2.16188335 0.595620275 -0.905228496 0.0206671152 -0.423313111 
0.124228626 1.74977767 0.524095178 -0.872481585 -0.370099545 -0.31606096 
-0.135520861 2.681283 -0.131549895 -0.167270124 0.832396865 -0.525307775 
0.00357272732 2.0718751 0.625040531 -0.947564542 -0.112514623 -0.296315819 
0.0195458829 2.03299904 0.594367146 -0.926603913 -0.132586345 -0.348255962 
-0.02153988 2.25245714 0.707124829 -0.974910975 0.0942277089 -0.196276024 
-0.352131099 2.05675697 0.291226745 -0.859838367 -0.226746425 0.456219405 
0.00229853531 2.38509798 0.735523283 -0.920831144 0.346891254 -0.170877457 
-0.107485108 2.70422554 -0.09826985 -0.0903208032 0.894881129 -0.433881134 
-0.05353982 1.63699806 0.343785793 0.238319352 -0.458582848 0.855387628 
0.0759954676 -0.349556863 0.0113204373 0.356999964 -0.0957999974 0.929199934 
-0.409980595 2.52671432 0.0894722641 -0.913542151 0.396672755 0.0658037812 
0.109134607 2.62267041 -0.146945536 0.471716404 0.674238324 -0.566804171 
0.0122511871 1.98523438 0.655203819 -0.957515955 -0.238513604 -0.156836659 
-0.370134532 2.59148836 0.0128340712 -0.804189682 0.572323024 -0.141159728 
0.0348029099 2.09225941 0.550269723 -0.865000844 -0.0313109793 -0.498538196 
-0.0203152914 2.71309376 -0.075066261 0.117251568 0.920580506 -0.370817333 
0.108312935 2.53909016 0.870269716 -0.630254507 0.751942635 0.188228369 
-0.415420264 2.50235415 0.124322362 -0.925763845 0.338811308 0.156582445 
0.0786038786 2.5078752 0.878754497 -0.715474129 0.663631856 0.207171857 
-0.4285869 2.45733333 0.128285021 -0.956753612 0.23691377 0.160263941 
-0.340642303 2.63363075 0.0690790862 -0.721461117 0.689623594 0.00773616461 
-0.0103172548 2.05806255 0.709051549 -0.977032781 -0.19132705 -0.0793344527 
-0.410272598 2.52736688 0.0469322316 -0.915155709 0.396108329 -0.0480614379 
-0.0180510264 2.2988832 0.722645938 -0.967118144 0.171747491 -0.1769986 
0.0420749038 1.95323598 0.572775781 -0.914729476 -0.199202538 -0.348570973 
-0.36543569 1.99891639 0.197827056 -0.926416278 -0.34073621 0.15238151 
-0.0179931447 2.17905378 0.676526964 -0.971657872 -0.00596727803 -0.234430119 
-0.108417802 1.61138117 0.289426923 -0.668041646 -0.743503094 -0.00209851889 
-0.0728282258 2.71826696 -0.0704819188 -0.00424916251 0.93106252 -0.358142674 
-0.00692533143 2.37294507 0.780881763 -0.946486413 0.311225951 -0.0510641672 
0.0784406364 1.88295734 0.526935577 -0.875164986 -0.223405838 -0.427681923 
0.221208647 1.60686982 0.476673454 -0.764702797 -0.542617917 -0.346377611 
-0.0299757961 2.19538784 0.759602189 -0.997964561 -0.0262204614 -0.0414973162 
0.0343077704 2.4615469 0.827458143 -0.841823161 0.531247914 0.0642298535 
0.0514367223 2.48893023 0.803595722 -0.795394957 0.605375528 7.89486803e-05 
0.115775518 1.74791598 0.554588974 -0.887220681 -0.413152277 -0.203563035 
-0.356852621 2.0156045 0.252652615 -0.899649024 -0.287598193 0.324752957 
-0.0516724139 2.73958373 0.00739178155 0.0447161756 0.981928766 -0.17791079 
