ply
format ascii 1.0
comment created by gply, a Houdini tool.
comment converted from .[b]geo
comment for more information about Houdini, try:
comment www.sidefx.com
element vertex 1013
property float x
property float y
property float z
property uchar red
property uchar green
property uchar blue
element face 0
property list uchar int vertex_indices
end_header
1.07502747 0.0447291136 0.780086637 94 58 34 
1.06846476 0.0700416118 0.780086637 102 62 38 
1.06846476 0.0747291148 0.781024098 102 62 38 
1.06846476 0.00629161298 0.795086622 138 106 82 
0.993464947 -0.00777088664 0.750086665 66 42 22 
0.993464947 -0.00870838668 0.765086651 90 66 42 
0.993464947 -0.00589588657 0.780086637 122 94 70 
0.993464947 -0.00308338646 0.795086622 126 94 70 
1.00846481 -0.000270886347 0.735086679 62 38 22 
1.00846481 -0.00870838668 0.750086665 66 42 22 
1.00846481 -0.00777088664 0.765086651 86 62 38 
1.00846481 -0.00589588657 0.780086637 126 98 74 
1.00846481 -0.00308338646 0.795086622 134 102 78 
1.02346492 -0.0040208865 0.735086679 62 38 22 
1.02346492 -0.00964588672 0.750086665 70 46 26 
1.02346492 -0.00589588657 0.765086651 86 58 34 
1.02346492 -0.00495838653 0.780086637 126 98 74 
1.02346492 -0.00120838638 0.795086622 146 114 86 
1.03846478 -0.00120838638 0.735086679 62 34 18 
1.03846478 -0.00120838638 0.750086665 62 34 14 
1.03846478 -0.00120838638 0.780086637 114 78 54 
1.03846478 -0.000270886347 0.795086622 154 122 94 
0.873464823 0.00722911395 0.810086608 142 106 78 
0.873464823 0.0100416131 0.824149132 142 106 78 
0.873464823 0.0128541123 0.840086699 138 106 74 
0.873464823 0.0147291124 0.852274179 134 98 74 
0.880964756 0.0147291124 0.855086684 134 102 74 
0.873464823 0.0156666134 0.855086684 134 98 74 
0.882839918 0.0147291124 0.87008667 138 102 74 
0.873464823 0.0156666134 0.87008667 138 102 74 
0.873464823 0.0184791125 0.885086656 138 102 74 
0.888464928 0.00629161298 0.810086608 138 106 78 
0.888464928 0.00910411216 0.824149132 142 110 82 
0.888464928 0.0119166132 0.840086699 138 106 78 
0.888464928 0.0147291124 0.855086684 138 102 78 
0.888464928 0.0147291124 0.87008667 138 102 74 
0.891277313 0.0147291124 0.87008667 138 102 74 
0.888464928 0.0147291124 0.87008667 138 102 74 
0.888464928 0.0203541145 0.885086656 138 106 78 
0.903464794 0.00535411388 0.810086608 138 102 74 
0.903464794 0.00816661306 0.824149132 138 102 74 
0.903464794 0.0100416131 0.840086699 134 98 70 
0.903464794 0.0137916133 0.855086684 134 98 70 
0.903464794 0.0147291124 0.861649156 134 98 70 
0.903464794 0.0156666134 0.87008667 134 98 70 
0.903464794 0.0184791125 0.885086656 138 102 74 
0.903464794 0.0231666118 0.900086641 138 106 78 
0.918464899 0.00441661291 0.810086608 134 102 70 
0.918464899 0.00722911395 0.824149132 134 102 74 
0.918464899 0.0100416131 0.840086699 134 98 74 
0.918464899 0.0128541123 0.855086684 130 98 70 
0.918464899 0.0147291124 0.867274165 134 102 74 
0.918464899 0.0156666134 0.87008667 134 102 74 
0.918464899 0.0184791125 0.885086656 138 102 74 
0.918464899 0.0231666118 0.900086641 138 106 78 
0.933464766 0.00254161283 0.810086608 130 98 70 
0.933464766 0.00629161298 0.824149132 130 98 70 
0.933464766 0.00910411216 0.840086699 134 102 70 
0.933464766 0.0119166132 0.855086684 130 98 70 
0.933464766 0.0147291124 0.866336584 134 98 70 
0.933464766 0.0156666134 0.87008667 134 98 70 
0.933464766 0.0184791125 0.885086656 142 106 78 
0.933464766 0.0231666118 0.900086641 146 114 82 
0.94846487 0.0016041128 0.810086608 134 98 74 
0.94846487 0.00535411388 0.824149132 130 98 70 
0.94846487 0.00816661306 0.840086699 126 94 66 
0.94846487 0.0119166132 0.855086684 130 98 70 
0.94846487 0.0147291124 0.867274165 134 98 70 
0.94846487 0.0156666134 0.87008667 134 98 70 
0.94846487 0.0184791125 0.885086656 142 110 78 
0.94846487 0.0231666118 0.900086641 154 118 86 
0.963464975 0.0016041128 0.810086608 130 98 70 
0.963464975 0.00441661291 0.824149132 126 94 66 
0.963464975 0.00816661306 0.840086699 126 94 66 
0.963464975 0.0119166132 0.855086684 130 98 70 
0.963464975 0.0147291124 0.869149089 134 102 70 
0.963464975 0.0147291124 0.87008667 134 102 70 
0.963464975 0.0184791125 0.885086656 146 110 82 
0.963464975 0.0241041109 0.900086641 162 126 94 
0.978464842 0.000666613691 0.810086608 130 98 70 
0.978464842 0.00441661291 0.824149132 130 94 66 
0.978464842 0.00816661306 0.840086699 126 94 66 
0.978464842 0.0109791122 0.855086684 130 98 70 
0.978464842 0.0147291124 0.868211627 138 106 74 
0.991589785 0.0147291124 0.87008667 146 114 82 
0.978464842 0.0156666134 0.87008667 138 106 74 
0.978464842 0.0184791125 0.885086656 150 118 86 
0.978464842 0.0250416137 0.900086641 166 130 98 
0.843464851 0.0597291142 0.748211622 174 150 130 
0.843464851 0.0747291148 0.74727416 178 154 134 
0.843464851 0.0897291079 0.745399117 182 158 134 
0.843464851 0.104729109 0.744461656 182 158 138 
0.843464851 0.0147291124 0.759461641 150 118 94 
0.843464851 0.029729113 0.75289917 174 146 122 
0.843464851 0.0484791137 0.750086665 174 150 130 
0.843464851 0.0447291136 0.750086665 174 150 126 
0.845339775 0.0597291142 0.750086665 170 146 122 
0.846277475 0.0747291148 0.750086665 166 142 122 
0.849089861 0.0897291079 0.750086665 162 138 114 
0.850027323 0.104729109 0.750086665 162 138 114 
0.843464851 0.0109791122 0.765086651 134 106 78 
0.843464851 0.00629161298 0.780086637 138 106 78 
0.843464851 0.00722911395 0.795086622 138 106 78 
0.858464956 0.0147291124 0.762274146 118 90 66 
0.858464956 0.029729113 0.757586598 118 90 70 
0.858464956 0.0447291136 0.755711675 126 102 82 
0.858464956 0.0597291142 0.754774094 134 110 90 
0.858464956 0.0747291148 0.753836632 138 114 90 
0.858464956 0.0897291079 0.75289917 142 114 94 
0.858464956 0.104729109 0.751961589 142 118 94 
0.858464956 0.0109791122 0.765086651 122 90 66 
0.858464956 0.00535411388 0.780086637 130 98 70 
0.858464956 0.00629161298 0.795086622 134 98 70 
0.993464947 0.000666613691 0.810086608 130 98 70 
0.993464947 0.0034791138 0.824149132 134 98 70 
0.993464947 0.00816661306 0.840086699 138 106 74 
0.993464947 0.0109791122 0.855086684 142 106 78 
0.993464947 0.0147291124 0.87008667 150 114 86 
0.993464947 0.0147291124 0.87008667 150 114 86 
0.993464947 0.0175416134 0.885086656 158 122 90 
0.993464947 0.0222291127 0.900086641 162 126 94 
1.00846481 0.000666613691 0.810086608 142 106 78 
1.00846481 0.00441661291 0.824149132 142 110 78 
1.00846481 0.00816661306 0.840086699 150 114 86 
1.00846481 0.0109791122 0.855086684 154 118 86 
1.00846481 0.0137916133 0.87008667 154 118 90 
1.00846481 0.0147291124 0.875711679 154 122 90 
1.00846481 0.0166041125 0.885086656 158 126 94 
1.00846481 0.0222291127 0.900086641 162 126 98 
1.02346492 0.0016041128 0.810086608 150 118 86 
1.02346492 0.00441661291 0.824149132 150 118 86 
1.02346492 0.00722911395 0.840086699 154 118 90 
1.02346492 0.0100416131 0.855086684 154 122 90 
1.02346492 0.0128541123 0.87008667 158 126 94 
1.02346492 0.0147291124 0.880399108 158 122 90 
1.02346492 0.0156666134 0.885086656 158 122 90 
1.02346492 0.0212916136 0.900086641 158 122 90 
1.03846478 0.00254161283 0.810086608 150 114 86 
1.03846478 0.00441661291 0.824149132 150 114 86 
1.03846478 0.00722911395 0.840086699 154 122 90 
1.03846478 0.0100416131 0.855086684 154 118 90 
1.03846478 0.0128541123 0.87008667 158 122 90 
1.03846478 0.0147291124 0.884149075 158 122 94 
1.03846478 0.0147291124 0.885086656 158 122 94 
1.03846478 0.0147291124 0.885086656 158 122 94 
1.03846478 0.0194166116 0.900086641 154 122 90 
1.05346489 0.0034791138 0.810086608 146 114 86 
1.05346489 0.00441661291 0.824149132 150 118 86 
1.05346489 0.00722911395 0.840086699 150 118 86 
1.05346489 0.00910411216 0.855086684 150 118 90 
1.05346489 0.0119166132 0.87008667 154 122 90 
1.05346489 0.0137916133 0.885086656 154 118 90 
1.05346489 0.0147291124 0.886961699 154 118 90 
1.05346489 0.0194166116 0.900086641 154 122 90 
1.06846476 0.00441661291 0.810086608 146 114 86 
1.06846476 0.00535411388 0.824149132 146 114 86 
1.06846476 0.00722911395 0.840086699 150 118 90 
1.06846476 0.00910411216 0.855086684 150 118 86 
1.06846476 0.0100416131 0.87008667 154 122 94 
1.06846476 0.0128541123 0.885086656 158 126 94 
1.06846476 0.0147291124 0.897274137 158 122 94 
1.06940246 0.0147291124 0.900086641 158 122 94 
1.06846476 0.0156666134 0.900086641 158 122 94 
0.873464823 0.0147291124 0.761336684 110 82 62 
0.873464823 0.029729113 0.756649137 106 82 58 
0.873464823 0.0447291136 0.754774094 118 94 70 
0.884714842 0.0597291142 0.750086665 130 106 82 
0.873464823 0.0597291142 0.75289917 126 102 82 
0.881902456 0.0747291148 0.750086665 134 110 86 
0.873464823 0.0747291148 0.751961589 134 110 86 
0.882839918 0.0897291079 0.750086665 134 110 86 
0.873464823 0.0897291079 0.751961589 134 110 90 
0.881902456 0.104729109 0.750086665 138 114 90 
0.873464823 0.104729109 0.751961589 138 114 90 
0.873464823 0.00816661306 0.765086651 118 90 66 
0.873464823 0.0034791138 0.780086637 130 98 70 
0.873464823 0.00441661291 0.795086622 134 102 74 
0.888464928 0.0597291142 0.749149084 130 102 82 
0.888464928 0.0747291148 0.748211622 134 110 86 
0.888464928 0.0897291079 0.748211622 134 110 86 
0.888464928 0.104729109 0.74727416 138 110 90 
0.888464928 0.0147291124 0.757586598 98 74 50 
0.895964861 0.029729113 0.750086665 102 78 58 
0.888464928 0.029729113 0.75289917 102 82 58 
0.88940239 0.0447291136 0.750086665 122 98 78 
0.888464928 0.0494166091 0.750086665 126 102 78 
0.888464928 0.0447291136 0.750086665 122 98 74 
0.90158987 -0.000270886347 0.765086651 118 94 66 
0.888464928 0.0034791138 0.765086651 118 90 66 
0.898777485 -0.000270886347 0.780086637 126 98 70 
0.888464928 0.0016041128 0.780086637 130 98 74 
0.888464928 0.0034791138 0.795086622 134 102 74 
0.903464794 0.029729113 0.74727416 98 74 54 
0.903464794 0.0447291136 0.745399117 118 94 70 
0.903464794 0.0597291142 0.744461656 126 102 82 
0.903464794 0.0747291148 0.743524075 130 106 82 
0.903464794 0.0897291079 0.743524075 130 106 86 
0.903464794 0.104729109 0.743524075 134 110 86 
0.903464794 -0.000270886347 0.764149189 118 90 66 
0.90721488 0.0147291124 0.750086665 74 50 30 
0.903464794 0.0194166116 0.750086665 82 58 38 
0.903464794 0.0147291124 0.751024127 78 54 34 
0.903464794 -0.000270886347 0.781961679 126 98 70 
0.903464794 0.00254161283 0.795086622 130 98 70 
0.918464899 0.0147291124 0.74727416 74 50 30 
0.918464899 0.029729113 0.744461656 98 74 54 
0.918464899 0.0447291136 0.741649151 114 90 70 
0.918464899 0.0597291142 0.740711689 122 102 78 
0.918464899 0.0747291148 0.740711689 130 106 82 
0.918464899 0.0897291079 0.739774108 130 106 82 
0.918464899 0.104729109 0.739774108 134 110 86 
0.918464899 0.00722911395 0.750086665 66 42 22 
0.918464899 -0.000270886347 0.759461641 94 70 46 
0.918464899 -0.000270886347 0.789461613 130 98 70 
0.929714918 -0.000270886347 0.795086622 130 98 70 
0.918464899 0.000666613691 0.795086622 134 102 74 
0.933464766 0.0147291124 0.743524075 78 58 38 
0.933464766 0.029729113 0.740711689 98 78 58 
0.933464766 0.0447291136 0.738836646 114 90 70 
0.933464766 0.0597291142 0.737899184 122 98 78 
0.946589947 0.0747291148 0.735086679 126 102 82 
0.933464766 0.0747291148 0.736961603 126 102 82 
0.941902399 0.0897291079 0.735086679 130 106 82 
0.933464766 0.0897291079 0.736961603 130 106 82 
0.937214851 0.104729109 0.735086679 130 106 86 
0.933464766 0.119729117 0.735086679 134 110 86 
0.933464766 0.104729109 0.736024141 130 106 86 
0.940027475 -0.000270886347 0.750086665 66 42 22 
0.933464766 0.0016041128 0.750086665 66 42 22 
0.933464766 -0.000270886347 0.75289917 74 50 30 
0.933464766 -0.000270886347 0.796024084 130 98 70 
0.94846487 0.0747291148 0.734149098 126 102 82 
0.94846487 0.0897291079 0.732274175 130 102 82 
0.94846487 0.104729109 0.731336594 130 106 82 
0.94846487 -0.000270886347 0.748211622 66 46 26 
0.94846487 0.0147291124 0.740711689 78 58 38 
0.955027342 0.029729113 0.735086679 102 82 62 
0.94846487 0.029729113 0.736024141 106 82 62 
0.94846487 0.0447291136 0.735086679 118 94 74 
0.94846487 0.0447291136 0.735086679 118 94 74 
0.950339794 0.0597291142 0.735086679 122 98 78 
0.94846487 0.0700416118 0.735086679 122 98 78 
0.94846487 0.0597291142 0.735086679 118 98 78 
0.94846487 -0.000270886347 0.800711632 130 98 70 
0.963464975 0.029729113 0.733211637 98 74 58 
0.963464975 0.0447291136 0.730399132 114 90 74 
0.963464975 0.0597291142 0.730399132 122 98 78 
0.963464975 0.0747291148 0.72946167 126 102 78 
0.963464975 0.0897291079 0.728524089 126 102 82 
0.963464975 0.104729109 0.726649165 130 106 82 
0.963464975 -0.000270886347 0.744461656 66 42 22 
0.968152285 0.0147291124 0.735086679 74 50 34 
0.963464975 0.0194166116 0.735086679 82 62 42 
0.963464975 0.0147291124 0.736024141 74 54 34 
0.963464975 -0.000270886347 0.804461598 130 98 70 
0.978464842 0.0147291124 0.732274175 74 50 34 
0.978464842 0.029729113 0.72946167 94 70 54 
0.978464842 0.0447291136 0.727586627 110 86 66 
0.978464842 0.0597291142 0.726649165 118 94 74 
0.978464842 0.0747291148 0.725711584 122 98 78 
0.978464842 0.0897291079 0.724774122 126 102 78 
0.992527485 0.104729109 0.720086575 122 98 78 
0.978464842 0.104729109 0.72383666 126 102 82 
0.978464842 0.00910411216 0.735086679 66 42 26 
0.978464842 -0.000270886347 0.741649151 62 42 22 
0.978464842 -0.000270886347 0.808211684 130 94 70 
0.903464794 -0.000270886347 0.765086651 118 94 66 
0.903464794 -0.000270886347 0.780086637 126 98 70 
0.918464899 -0.00308338646 0.765086651 110 86 62 
0.918464899 -0.00214588642 0.780086637 126 94 70 
0.933464766 -0.00495838653 0.765086651 106 82 58 
0.933464766 -0.00308338646 0.780086637 126 98 70 
0.933464766 -0.000270886347 0.795086622 130 98 70 
0.94846487 -0.00214588642 0.750086665 66 46 26 
0.94846487 -0.00683338661 0.765086651 110 82 58 
0.94846487 -0.00495838653 0.780086637 126 98 70 
0.94846487 -0.00120838638 0.795086622 130 98 70 
0.963464975 -0.00495838653 0.750086665 66 42 22 
0.963464975 -0.00777088664 0.765086651 98 74 50 
0.963464975 -0.00589588657 0.780086637 126 98 70 
0.963464975 -0.00308338646 0.795086622 134 102 74 
0.978464842 -0.00683338661 0.750086665 66 42 22 
0.978464842 -0.00870838668 0.765086651 98 70 46 
0.978464842 -0.00589588657 0.780086637 126 98 70 
0.978464842 -0.00308338646 0.795086622 126 94 70 
0.873464823 0.164729103 0.749149084 142 118 94 
0.873464823 0.179729104 0.749149084 146 118 94 
0.873464823 0.194729105 0.748211622 146 118 94 
0.873464823 0.209729105 0.748211622 146 118 94 
0.873464823 0.224729106 0.748211622 146 118 94 
0.879089832 0.119729117 0.750086665 138 114 90 
0.873464823 0.119729117 0.751024127 138 114 90 
0.877214909 0.134729117 0.750086665 142 114 90 
0.873464823 0.134729117 0.751024127 142 114 90 
0.873464823 0.149729103 0.750086665 142 118 90 
0.873464823 0.150666609 0.750086665 142 118 90 
0.873464823 0.149729103 0.750086665 142 118 90 
0.888464928 0.119729117 0.74727416 138 114 90 
0.888464928 0.134729117 0.746336579 142 114 90 
0.888464928 0.149729103 0.745399117 142 114 90 
0.888464928 0.164729103 0.745399117 142 118 90 
0.888464928 0.179729104 0.744461656 142 118 94 
0.888464928 0.194729105 0.744461656 146 118 94 
0.888464928 0.209729105 0.744461656 146 118 94 
0.888464928 0.224729106 0.743524075 146 118 94 
0.903464794 0.119729117 0.742586613 138 110 86 
0.903464794 0.134729117 0.741649151 138 114 90 
0.903464794 0.149729103 0.741649151 138 114 90 
0.903464794 0.164729103 0.741649151 142 114 90 
0.903464794 0.179729104 0.740711689 142 114 90 
0.903464794 0.194729105 0.739774108 142 118 90 
0.903464794 0.209729105 0.739774108 146 118 94 
0.903464794 0.224729106 0.739774108 146 118 94 
0.932527304 0.119729117 0.735086679 134 110 86 
0.918464899 0.119729117 0.738836646 134 110 86 
0.93065238 0.134729117 0.735086679 138 110 86 
0.918464899 0.134729117 0.737899184 138 110 86 
0.928777456 0.149729103 0.735086679 138 110 90 
0.918464899 0.149729103 0.737899184 138 110 90 
0.925964832 0.164729103 0.735086679 138 114 90 
0.918464899 0.164729103 0.736961603 138 114 90 
0.924089909 0.179729104 0.735086679 142 114 90 
0.918464899 0.179729104 0.736024141 142 114 90 
0.924089909 0.194729105 0.735086679 142 114 90 
0.918464899 0.194729105 0.736024141 142 114 90 
0.924089909 0.209729105 0.735086679 142 114 90 
0.918464899 0.209729105 0.736024141 146 114 90 
0.922214985 0.224729106 0.735086679 146 118 90 
0.918464899 0.224729106 0.736024141 146 118 90 
0.933464766 0.119729117 0.734149098 134 110 86 
0.933464766 0.134729117 0.734149098 138 110 86 
0.933464766 0.149729103 0.733211637 138 110 90 
0.933464766 0.164729103 0.732274175 138 114 90 
0.933464766 0.179729104 0.732274175 142 114 90 
0.933464766 0.194729105 0.732274175 142 114 90 
0.933464766 0.209729105 0.732274175 142 114 90 
0.933464766 0.224729106 0.731336594 142 114 90 
0.94846487 0.119729117 0.730399132 134 106 86 
0.94846487 0.134729117 0.72946167 134 110 86 
0.94846487 0.149729103 0.728524089 138 110 86 
0.94846487 0.164729103 0.728524089 138 110 86 
0.94846487 0.179729104 0.728524089 138 110 86 
0.94846487 0.194729105 0.727586627 138 110 86 
0.94846487 0.209729105 0.727586627 138 110 86 
0.94846487 0.224729106 0.726649165 142 110 86 
0.963464975 0.119729117 0.726649165 130 106 82 
0.963464975 0.134729117 0.725711584 134 106 86 
0.963464975 0.149729103 0.724774122 134 106 86 
0.963464975 0.164729103 0.72383666 134 106 86 
0.963464975 0.179729104 0.72383666 134 106 86 
0.963464975 0.194729105 0.72383666 134 110 86 
0.963464975 0.209729105 0.72383666 134 106 86 
0.963464975 0.224729106 0.72383666 134 106 86 
0.986902475 0.119729117 0.720086575 122 98 78 
0.978464842 0.119729117 0.721961617 126 102 82 
0.984089851 0.134729117 0.720086575 126 102 82 
0.978464842 0.134729117 0.721024156 126 102 82 
0.981277466 0.149729103 0.720086575 130 102 82 
0.978464842 0.149729103 0.720086575 130 102 82 
0.980339766 0.164729103 0.720086575 130 102 82 
0.978464842 0.164729103 0.720086575 130 102 82 
0.980339766 0.179729104 0.720086575 130 102 82 
0.978464842 0.179729104 0.720086575 130 102 82 
0.981277466 0.194729105 0.720086575 130 102 82 
0.978464842 0.194729105 0.720086575 130 102 82 
0.979402304 0.209729105 0.720086575 130 106 82 
0.978464842 0.209729105 0.720086575 130 106 82 
0.979402304 0.224729106 0.720086575 130 106 82 
0.978464842 0.224729106 0.720086575 130 106 82 
1.04877734 0.149729103 0.810086608 114 74 46 
1.04596496 0.164729103 0.810086608 122 74 46 
1.04221487 0.179729104 0.810086608 126 74 46 
1.04408979 0.194729105 0.810086608 126 70 42 
1.04783988 0.194729105 0.824149132 130 78 46 
1.05346489 0.209729105 0.810086608 114 58 34 
1.05346489 0.209729105 0.810086608 114 58 34 
1.05346489 0.205041602 0.824149132 118 62 34 
1.05346489 0.194729105 0.837274075 134 74 46 
1.05721498 0.209729105 0.824149132 110 54 30 
1.06190228 0.134729117 0.840086699 134 94 66 
1.05346489 0.190979108 0.840086699 134 78 50 
1.05346489 0.179729104 0.844774127 138 86 54 
1.05440235 0.194729105 0.840086699 134 74 46 
1.06377745 0.209729105 0.840086699 130 66 42 
1.06283998 0.149729103 0.855086684 142 94 62 
1.05627728 0.179729104 0.855086684 134 82 54 
1.0590899 0.194729105 0.855086684 126 74 42 
1.06658983 0.209729105 0.855086684 130 66 38 
1.06283998 0.194729105 0.87008667 138 82 46 
1.06565237 0.194729105 0.885086656 130 74 38 
1.06658983 0.194729105 0.900086641 138 86 50 
1.06846476 0.213479102 0.810086608 114 66 50 
1.06846476 0.220041603 0.824149132 126 70 54 
1.08158994 0.224729106 0.824149132 162 126 118 
1.06846476 0.214416608 0.840086699 130 66 42 
1.08065248 0.224729106 0.840086699 178 106 94 
1.06846476 0.211604103 0.855086684 130 66 38 
1.06846476 0.209729105 0.859774113 126 66 38 
1.07971478 0.224729106 0.855086684 150 66 46 
1.06846476 0.205979109 0.87008667 126 70 38 
1.07127738 0.209729105 0.87008667 126 70 38 
1.0825274 0.224729106 0.87008667 122 50 26 
1.06846476 0.202229112 0.885086656 130 70 34 
1.0731523 0.209729105 0.885086656 138 74 42 
1.0825274 0.224729106 0.885086656 166 78 58 
1.06846476 0.179729104 0.908524156 138 90 54 
1.06846476 0.198479116 0.900086641 134 78 46 
1.06846476 0.194729105 0.905711651 138 86 50 
1.07502747 0.209729105 0.900086641 118 58 26 
0.843464851 0.119729117 0.743524075 186 162 138 
0.843464851 0.134729117 0.741649151 186 162 142 
0.843464851 0.149729103 0.740711689 186 162 142 
0.843464851 0.164729103 0.740711689 190 166 142 
0.843464851 0.179729104 0.740711689 190 166 142 
0.843464851 0.194729105 0.739774108 190 166 146 
0.843464851 0.209729105 0.739774108 190 166 146 
0.843464851 0.224729106 0.739774108 190 170 146 
0.852839947 0.119729117 0.750086665 154 130 110 
0.85471487 0.134729117 0.750086665 150 126 102 
0.856589794 0.149729103 0.750086665 146 122 98 
0.857527256 0.164729103 0.750086665 146 122 98 
0.857527256 0.179729104 0.750086665 146 122 98 
0.857527256 0.194729105 0.750086665 146 122 94 
0.857527256 0.209729105 0.750086665 150 122 98 
0.857527256 0.224729106 0.750086665 150 122 98 
0.858464956 0.119729117 0.751024127 142 118 94 
0.858464956 0.134729117 0.751024127 146 118 94 
0.858464956 0.149729103 0.750086665 146 118 94 
0.86033988 0.164729103 0.750086665 146 118 98 
0.858464956 0.164729103 0.750086665 146 122 98 
0.861277342 0.179729104 0.750086665 146 118 94 
0.858464956 0.179729104 0.750086665 146 122 94 
0.858464956 0.194729105 0.750086665 146 118 94 
0.858464956 0.194729105 0.750086665 146 122 94 
0.86033988 0.209729105 0.750086665 146 118 94 
0.858464956 0.209729105 0.750086665 146 122 94 
0.859402418 0.224729106 0.750086665 146 118 94 
0.858464956 0.224729106 0.750086665 150 122 98 
0.993464947 0.119729117 0.718211651 122 98 78 
0.993464947 0.134729117 0.717274189 122 98 78 
0.993464947 0.149729103 0.716336608 126 98 78 
0.993464947 0.164729103 0.717274189 126 98 78 
0.993464947 0.179729104 0.717274189 126 102 82 
0.993464947 0.194729105 0.716336608 126 102 82 
0.993464947 0.209729105 0.715399146 130 102 82 
0.993464947 0.224729106 0.716336608 130 102 82 
1.00846481 0.119729117 0.714461684 118 94 74 
1.00846481 0.134729117 0.713524103 122 98 78 
1.00846481 0.149729103 0.713524103 122 98 78 
1.00846481 0.164729103 0.712586641 126 98 78 
1.00846481 0.179729104 0.712586641 126 102 82 
1.00846481 0.194729105 0.712586641 126 102 82 
1.00846481 0.209729105 0.712586641 126 102 82 
1.00846481 0.224729106 0.712586641 126 102 82 
1.02346492 0.119729117 0.710711598 114 90 74 
1.02346492 0.134729117 0.710711598 118 94 78 
1.02346492 0.149729103 0.709774137 122 98 82 
1.02346492 0.164729103 0.708836675 122 102 82 
1.02346492 0.179729104 0.708836675 122 102 86 
1.02346492 0.194729105 0.708836675 126 102 86 
1.02346492 0.209729105 0.708836675 122 98 82 
1.02346492 0.224729106 0.708836675 118 98 78 
1.03846478 0.119729117 0.706961632 110 90 74 
1.03846478 0.134729117 0.70602417 114 94 82 
1.04783988 0.149729103 0.705086589 110 90 74 
1.03846478 0.149729103 0.70602417 118 98 82 
1.04783988 0.164729103 0.705086589 106 86 70 
1.03846478 0.164729103 0.70602417 118 98 86 
1.0497148 0.179729104 0.705086589 102 78 62 
1.03846478 0.179729104 0.706961632 118 98 82 
1.05065227 0.194729105 0.705086589 90 70 54 
1.03846478 0.194729105 0.70602417 114 94 78 
1.0497148 0.209729105 0.705086589 90 70 54 
1.03846478 0.209729105 0.70602417 110 90 74 
1.05158997 0.224729106 0.705086589 86 66 50 
1.03846478 0.224729106 0.70602417 106 86 70 
1.05065227 0.119729117 0.750086665 78 46 26 
1.05065227 0.134729117 0.750086665 78 46 26 
1.05158997 0.149729103 0.750086665 82 50 30 
1.04877734 0.164729103 0.750086665 82 50 34 
1.05065227 0.179729104 0.750086665 82 50 30 
1.05158997 0.194729105 0.750086665 82 50 30 
1.0497148 0.209729105 0.750086665 82 46 26 
1.05065227 0.224729106 0.750086665 78 42 22 
1.04877734 0.119729117 0.765086651 90 46 22 
1.04783988 0.134729117 0.765086651 90 50 26 
1.04596496 0.149729103 0.765086651 94 54 30 
1.04596496 0.164729103 0.765086651 90 54 30 
1.04596496 0.179729104 0.765086651 94 54 30 
1.04690242 0.194729105 0.765086651 94 50 30 
1.04877734 0.209729105 0.765086651 90 50 26 
1.0497148 0.224729106 0.765086651 90 50 26 
1.04877734 0.119729117 0.780086637 102 54 26 
1.04596496 0.134729117 0.780086637 102 54 26 
1.04408979 0.149729103 0.780086637 106 58 30 
1.04127741 0.164729103 0.780086637 102 58 30 
1.04127741 0.179729104 0.780086637 98 54 30 
1.04690242 0.194729105 0.780086637 90 46 22 
1.04877734 0.134729117 0.795086622 110 62 30 
1.04502726 0.149729103 0.795086622 118 66 38 
1.03846478 0.164729103 0.795086622 114 66 34 
1.03846478 0.179729104 0.795086622 118 66 38 
1.04315233 0.194729105 0.795086622 118 70 38 
1.05346489 0.149729103 0.704149127 106 86 70 
1.05346489 0.164729103 0.704149127 102 78 66 
1.05346489 0.179729104 0.704149127 94 74 58 
1.05346489 0.194729105 0.704149127 90 66 54 
1.05346489 0.209729105 0.704149127 86 66 50 
1.05346489 0.224729106 0.704149127 82 62 46 
1.05346489 0.119729117 0.70602417 102 82 66 
1.05346489 0.136604115 0.705086589 110 86 70 
1.05346489 0.134729117 0.705086589 110 86 70 
1.06190228 0.149729103 0.705086589 90 70 54 
1.06565237 0.164729103 0.705086589 82 58 42 
1.05815244 0.209729105 0.705086589 82 58 46 
1.05721498 0.224729106 0.705086589 82 58 42 
1.05346489 0.119729117 0.746336579 82 46 30 
1.05346489 0.134729117 0.74727416 78 50 30 
1.05346489 0.149729103 0.748211622 82 50 30 
1.06752729 0.164729103 0.735086679 82 46 26 
1.05346489 0.164729103 0.745399117 82 50 30 
1.05346489 0.179729104 0.74727416 82 50 30 
1.06283998 0.194729105 0.735086679 74 42 26 
1.05346489 0.194729105 0.748211622 82 46 26 
1.06565237 0.209729105 0.735086679 74 42 26 
1.05346489 0.209729105 0.746336579 78 46 26 
1.06565237 0.224729106 0.735086679 78 42 26 
1.05346489 0.224729106 0.746336579 78 42 22 
1.05346489 0.209729105 0.773524165 86 42 18 
1.05346489 0.224729106 0.768836617 90 46 22 
1.05346489 0.119729117 0.786649108 110 62 34 
1.05346489 0.201291606 0.780086637 86 42 14 
1.05346489 0.127229109 0.795086622 110 62 30 
1.05346489 0.203166604 0.795086622 98 54 26 
1.06846476 0.179729104 0.703211665 78 54 42 
1.06846476 0.194729105 0.704149127 74 50 38 
1.06846476 0.119729117 0.70602417 82 58 42 
1.06846476 0.134729117 0.705086589 82 62 46 
1.06846476 0.149729103 0.705086589 82 62 46 
1.06846476 0.166604117 0.705086589 78 54 42 
1.06846476 0.164729103 0.705086589 78 54 38 
1.07502747 0.179729104 0.705086589 74 50 38 
1.0731523 0.194729105 0.705086589 74 50 34 
1.06846476 0.200354114 0.705086589 74 50 38 
1.06846476 0.209729105 0.70602417 74 46 34 
1.07971478 0.224729106 0.705086589 74 46 34 
1.06846476 0.224729106 0.705086589 74 50 34 
1.06846476 0.164729103 0.733211637 78 46 26 
1.06846476 0.194729105 0.727586627 74 42 26 
1.06846476 0.209729105 0.731336594 74 42 26 
1.06846476 0.224729106 0.731336594 78 42 26 
1.06846476 0.119729117 0.739774108 78 46 26 
1.06846476 0.134729117 0.739774108 82 50 30 
1.06846476 0.162854105 0.735086679 82 46 26 
1.06846476 0.149729103 0.738836646 82 46 26 
1.06846476 0.171291605 0.735086679 78 46 26 
1.06940246 0.179729104 0.735086679 78 46 22 
1.06846476 0.182541609 0.735086679 78 46 22 
1.06846476 0.179729104 0.736024141 78 46 22 
1.06846476 0.209729105 0.775399089 70 30 10 
1.06846476 0.224729106 0.771649122 78 38 18 
1.07690239 0.194729105 0.780086637 54 22 6 
1.06846476 0.203166604 0.780086637 62 26 6 
1.06846476 0.202229112 0.795086622 94 50 30 
1.06846476 0.209729105 0.804461598 106 58 42 
1.07690239 0.194729105 0.929149151 130 74 38 
1.08158994 0.209729105 0.929149151 138 78 46 
1.07033992 0.179729104 0.915086627 138 86 50 
1.07033992 0.194729105 0.915086627 138 82 46 
1.07783985 0.209729105 0.915086627 142 78 50 
0.978464842 0.237854123 0.720086575 134 106 82 
0.843464851 0.239729106 0.739774108 194 170 146 
0.843464851 0.254729092 0.739774108 190 170 146 
0.843464851 0.269729108 0.739774108 194 170 146 
0.843464851 0.284729123 0.740711689 194 170 150 
0.843464851 0.299729109 0.740711689 194 170 150 
0.843464851 0.314729095 0.741649151 194 174 150 
0.843464851 0.32972911 0.741649151 198 174 154 
0.843464851 0.344729096 0.742586613 198 174 154 
0.857527256 0.239729106 0.750086665 146 122 98 
0.855652332 0.254729092 0.750086665 154 126 102 
0.856589794 0.269729108 0.750086665 154 126 102 
0.855652332 0.284729123 0.750086665 154 130 106 
0.85471487 0.299729109 0.750086665 158 134 110 
0.855652332 0.314729095 0.750086665 158 130 106 
0.85471487 0.32972911 0.750086665 162 134 110 
0.85471487 0.344729096 0.750086665 162 138 114 
0.859402418 0.239729106 0.750086665 146 122 94 
0.858464956 0.239729106 0.750086665 146 122 98 
0.862214804 0.254729092 0.750086665 150 122 98 
0.858464956 0.254729092 0.750086665 150 122 98 
0.861277342 0.269729108 0.750086665 150 122 98 
0.858464956 0.269729108 0.750086665 150 122 98 
0.864089966 0.284729123 0.750086665 150 122 98 
0.858464956 0.284729123 0.750086665 150 122 98 
0.864089966 0.299729109 0.750086665 150 122 98 
0.858464956 0.299729109 0.751024127 150 122 98 
0.865027428 0.314729095 0.750086665 154 126 102 
0.858464956 0.314729095 0.750086665 150 126 102 
0.864089966 0.32972911 0.750086665 154 126 102 
0.858464956 0.32972911 0.751024127 154 126 102 
0.863152266 0.344729096 0.750086665 154 126 102 
0.858464956 0.344729096 0.751024127 154 126 102 
0.873464823 0.239729106 0.748211622 146 122 94 
0.873464823 0.254729092 0.748211622 150 122 98 
0.873464823 0.269729108 0.74727416 150 122 98 
0.873464823 0.284729123 0.748211622 150 122 98 
0.873464823 0.299729109 0.748211622 150 122 98 
0.873464823 0.314729095 0.748211622 154 126 98 
0.873464823 0.32972911 0.748211622 154 126 102 
0.873464823 0.344729096 0.74727416 154 126 102 
0.888464928 0.239729106 0.744461656 146 118 94 
0.888464928 0.254729092 0.743524075 150 122 98 
0.888464928 0.269729108 0.743524075 150 122 98 
0.888464928 0.284729123 0.742586613 150 122 98 
0.888464928 0.299729109 0.743524075 150 122 98 
0.888464928 0.314729095 0.743524075 150 122 98 
0.888464928 0.32972911 0.743524075 154 122 98 
0.888464928 0.344729096 0.742586613 154 122 98 
0.903464794 0.239729106 0.739774108 146 118 94 
0.903464794 0.254729092 0.738836646 150 122 94 
0.903464794 0.269729108 0.738836646 150 122 94 
0.903464794 0.284729123 0.738836646 150 122 94 
0.903464794 0.299729109 0.739774108 150 122 98 
0.903464794 0.314729095 0.738836646 150 122 98 
0.917527437 0.32972911 0.735086679 150 122 98 
0.903464794 0.32972911 0.738836646 150 122 98 
0.903464794 0.344729096 0.738836646 150 122 98 
0.918464899 0.32972911 0.734149098 150 122 98 
0.922214985 0.239729106 0.735086679 146 118 94 
0.918464899 0.239729106 0.736024141 146 118 94 
0.921277285 0.254729092 0.735086679 146 118 94 
0.918464899 0.254729092 0.736024141 146 118 94 
0.920339823 0.269729108 0.735086679 146 118 94 
0.918464899 0.269729108 0.735086679 146 118 94 
0.918464899 0.284729123 0.735086679 146 118 94 
0.918464899 0.284729123 0.735086679 146 118 94 
0.919402361 0.299729109 0.735086679 146 118 94 
0.918464899 0.299729109 0.735086679 146 118 94 
0.918464899 0.314729095 0.735086679 150 118 94 
0.918464899 0.327854097 0.735086679 150 122 98 
0.918464899 0.314729095 0.735086679 150 118 94 
0.918464899 0.331604123 0.735086679 150 122 98 
0.919402361 0.344729096 0.735086679 150 118 94 
0.918464899 0.344729096 0.735086679 150 118 94 
0.933464766 0.239729106 0.731336594 142 114 90 
0.933464766 0.254729092 0.730399132 146 114 90 
0.933464766 0.269729108 0.730399132 146 114 90 
0.933464766 0.284729123 0.730399132 146 114 90 
0.933464766 0.299729109 0.730399132 146 118 94 
0.933464766 0.314729095 0.730399132 146 118 94 
0.933464766 0.32972911 0.730399132 146 118 94 
0.933464766 0.344729096 0.730399132 146 118 94 
0.94846487 0.239729106 0.726649165 142 110 86 
0.94846487 0.254729092 0.726649165 142 114 90 
0.94846487 0.269729108 0.726649165 142 114 90 
0.94846487 0.284729123 0.726649165 142 114 90 
0.94846487 0.299729109 0.726649165 142 114 90 
0.94846487 0.314729095 0.726649165 142 114 90 
0.94846487 0.32972911 0.726649165 142 114 90 
0.94846487 0.344729096 0.726649165 142 114 90 
0.97752738 0.239729106 0.720086575 134 106 82 
0.963464975 0.239729106 0.72383666 134 106 86 
0.976589918 0.254729092 0.720086575 134 106 86 
0.963464975 0.254729092 0.72383666 138 110 86 
0.975652456 0.269729108 0.720086575 134 106 86 
0.963464975 0.269729108 0.722899079 138 110 86 
0.976589918 0.284729123 0.720086575 134 106 86 
0.963464975 0.284729123 0.722899079 138 110 86 
0.963464975 0.299729109 0.722899079 138 110 86 
0.97752738 0.314729095 0.720086575 134 106 86 
0.963464975 0.314729095 0.722899079 138 110 86 
0.976589918 0.32972911 0.720086575 134 106 82 
0.963464975 0.32972911 0.722899079 138 110 86 
0.97752738 0.344729096 0.720086575 134 106 82 
0.963464975 0.344729096 0.722899079 138 110 86 
0.978464842 0.239729106 0.719149113 134 106 82 
0.978464842 0.254729092 0.719149113 134 106 86 
0.978464842 0.269729108 0.719149113 134 106 86 
0.978464842 0.284729123 0.719149113 134 106 86 
0.978464842 0.314729095 0.719149113 134 106 86 
0.978464842 0.32972911 0.719149113 134 106 82 
0.978464842 0.344729096 0.720086575 134 106 82 
0.978464842 0.299729109 0.720086575 134 106 86 
0.978464842 0.299729109 0.720086575 134 106 86 
0.978464842 0.299729109 0.720086575 134 106 86 
0.978464842 0.299729109 0.720086575 134 106 86 
0.993464947 0.359729111 0.715399146 130 102 82 
0.993464947 0.374729097 0.715399146 130 102 82 
0.993464947 0.389729083 0.715399146 134 106 82 
0.993464947 0.404729098 0.716336608 134 106 86 
0.993464947 0.419729114 0.716336608 134 110 86 
0.993464947 0.434729099 0.716336608 134 110 86 
0.993464947 0.449729085 0.716336608 138 110 90 
0.993464947 0.4647291 0.716336608 138 114 90 
1.00846481 0.359729111 0.712586641 122 98 78 
1.00846481 0.374729097 0.712586641 126 98 78 
1.00846481 0.389729083 0.712586641 126 98 78 
1.00846481 0.404729098 0.712586641 126 102 82 
1.00846481 0.419729114 0.712586641 126 102 82 
1.00846481 0.434729099 0.712586641 130 106 86 
1.00846481 0.449729085 0.712586641 130 106 86 
1.00846481 0.4647291 0.712586641 134 110 90 
1.02346492 0.359729111 0.708836675 114 90 74 
1.02346492 0.374729097 0.708836675 114 90 74 
1.02346492 0.389729083 0.708836675 118 94 74 
1.02346492 0.404729098 0.708836675 118 94 78 
1.02346492 0.419729114 0.708836675 118 98 78 
1.02346492 0.434729099 0.708836675 122 98 82 
1.02346492 0.449729085 0.708836675 126 102 82 
1.02346492 0.4647291 0.708836675 130 106 86 
1.04690242 0.359729111 0.705086589 94 70 54 
1.03846478 0.359729111 0.70602417 102 78 66 
1.04502726 0.374729097 0.705086589 98 74 58 
1.03846478 0.374729097 0.70602417 102 82 66 
1.04408979 0.389729083 0.705086589 98 78 62 
1.03846478 0.389729083 0.705086589 106 82 66 
1.04127741 0.404729098 0.705086589 102 82 66 
1.03846478 0.404729098 0.705086589 106 86 70 
1.03940248 0.419729114 0.705086589 106 86 66 
1.03846478 0.419729114 0.705086589 110 86 70 
1.03846478 0.434729099 0.705086589 110 90 70 
1.03846478 0.434729099 0.705086589 114 90 70 
1.03846478 0.449729085 0.705086589 118 94 74 
1.03846478 0.449729085 0.705086589 118 94 74 
1.03940248 0.4647291 0.705086589 118 98 78 
1.03846478 0.4647291 0.705086589 118 98 78 
1.05252743 0.389729083 0.750086665 86 46 26 
1.05065227 0.419729114 0.750086665 86 46 26 
1.0497148 0.434729099 0.750086665 86 46 26 
1.05065227 0.449729085 0.750086665 86 54 30 
1.05252743 0.4647291 0.750086665 90 54 34 
1.05252743 0.389729083 0.765086651 86 46 26 
1.0497148 0.404729098 0.765086651 86 46 26 
1.04596496 0.419729114 0.765086651 86 46 26 
1.04408979 0.434729099 0.765086651 90 46 26 
1.04502726 0.449729085 0.765086651 90 46 26 
1.04596496 0.4647291 0.765086651 94 50 26 
1.04690242 0.419729114 0.780086637 90 46 22 
1.04408979 0.434729099 0.780086637 90 46 26 
1.04221487 0.449729085 0.780086637 94 46 26 
1.04221487 0.4647291 0.780086637 94 50 26 
1.04596496 0.434729099 0.795086622 86 46 26 
1.04221487 0.449729085 0.795086622 90 46 22 
1.04221487 0.4647291 0.795086622 102 54 30 
1.05346489 0.359729111 0.704149127 86 66 50 
1.05346489 0.374729097 0.703211665 90 66 50 
1.05346489 0.389729083 0.703211665 86 66 50 
1.05346489 0.404729098 0.702274084 90 70 54 
1.05346489 0.419729114 0.702274084 94 70 54 
1.05346489 0.434729099 0.701336622 98 74 58 
1.05346489 0.449729085 0.701336622 102 78 62 
1.05346489 0.4647291 0.701336622 106 82 66 
1.06002736 0.359729111 0.705086589 82 58 42 
1.06377745 0.374729097 0.705086589 82 58 42 
1.06752729 0.389729083 0.705086589 82 54 38 
1.06377745 0.359729111 0.735086679 90 58 38 
1.06658983 0.374729097 0.735086679 102 70 50 
1.05346489 0.389729083 0.749149084 86 46 26 
1.06471491 0.404729098 0.735086679 94 62 46 
1.05346489 0.419729114 0.74727416 86 46 26 
1.06096482 0.434729099 0.735086679 86 54 34 
1.05346489 0.434729099 0.746336579 86 46 26 
1.06565237 0.449729085 0.735086679 86 54 34 
1.05346489 0.449729085 0.74727416 86 54 30 
1.05346489 0.4647291 0.749149084 90 54 34 
1.05533981 0.359729111 0.750086665 86 46 26 
1.05440235 0.374729097 0.750086665 86 46 26 
1.05346489 0.385979116 0.750086665 86 46 26 
1.05346489 0.399104118 0.750086665 90 50 30 
1.05346489 0.404729098 0.750086665 94 54 34 
1.05346489 0.406604111 0.750086665 94 54 34 
1.05346489 0.404729098 0.751024127 94 54 34 
1.06283998 0.359729111 0.765086651 90 50 30 
1.05815244 0.374729097 0.765086651 90 50 26 
1.05346489 0.387854099 0.765086651 90 46 26 
1.05346489 0.389729083 0.765086651 90 46 26 
1.05346489 0.404729098 0.773524165 90 50 26 
1.06283998 0.389729083 0.780086637 78 42 22 
1.05346489 0.408479095 0.780086637 90 50 26 
1.06846476 0.404729098 0.703211665 82 54 38 
1.06846476 0.419729114 0.702274084 82 58 42 
1.06846476 0.434729099 0.70039916 86 62 46 
1.06846476 0.449729085 0.699461579 86 66 50 
1.06846476 0.4647291 0.698524117 94 74 58 
1.0731523 0.359729111 0.705086589 82 54 38 
1.06846476 0.359729111 0.70602417 82 54 38 
1.07127738 0.374729097 0.705086589 82 54 38 
1.06846476 0.374729097 0.705086589 82 54 38 
1.06846476 0.389729083 0.705086589 82 54 38 
1.06846476 0.390666604 0.705086589 82 54 38 
1.06846476 0.389729083 0.705086589 82 54 38 
1.06846476 0.359729111 0.72946167 90 58 38 
1.06846476 0.374729097 0.733211637 102 70 50 
1.06846476 0.404729098 0.730399132 94 62 42 
1.06846476 0.434729099 0.726649165 86 54 34 
1.06846476 0.449729085 0.732274175 86 54 34 
1.06846476 0.385979116 0.735086679 106 78 58 
1.06846476 0.390666604 0.735086679 110 78 58 
1.06846476 0.389729083 0.735086679 110 78 58 
1.06846476 0.4178541 0.735086679 90 54 34 
1.06846476 0.420666605 0.735086679 90 54 34 
1.06846476 0.419729114 0.735086679 90 54 30 
1.06846476 0.453479111 0.735086679 86 54 34 
1.07690239 0.4647291 0.735086679 82 50 34 
1.06846476 0.4647291 0.741649151 94 54 38 
1.08158994 0.359729111 0.750086665 102 58 34 
1.06846476 0.359729111 0.766024113 86 50 30 
1.06846476 0.374729097 0.768836617 86 46 26 
1.06846476 0.385979116 0.780086637 70 38 18 
1.06846476 0.389729083 0.781961679 66 38 18 
0.873464823 0.359729111 0.74727416 154 126 102 
0.873464823 0.374729097 0.74727416 154 126 102 
0.873464823 0.389729083 0.748211622 158 130 102 
0.873464823 0.404729098 0.748211622 158 130 102 
0.873464823 0.419729114 0.748211622 154 126 102 
0.873464823 0.434729099 0.748211622 154 126 102 
0.873464823 0.449729085 0.748211622 158 130 102 
0.873464823 0.4647291 0.748211622 158 130 102 
0.888464928 0.359729111 0.742586613 154 126 102 
0.888464928 0.374729097 0.742586613 154 126 102 
0.888464928 0.389729083 0.743524075 154 126 102 
0.888464928 0.404729098 0.743524075 154 126 102 
0.888464928 0.419729114 0.743524075 154 126 102 
0.888464928 0.434729099 0.743524075 154 126 102 
0.888464928 0.449729085 0.743524075 154 126 102 
0.888464928 0.4647291 0.743524075 154 126 102 
0.903464794 0.359729111 0.738836646 154 122 98 
0.903464794 0.374729097 0.738836646 154 126 98 
0.903464794 0.389729083 0.739774108 154 126 98 
0.903464794 0.404729098 0.738836646 154 126 98 
0.903464794 0.419729114 0.739774108 154 126 102 
0.903464794 0.434729099 0.739774108 154 126 98 
0.903464794 0.449729085 0.739774108 154 126 102 
0.903464794 0.4647291 0.739774108 154 126 102 
0.919402361 0.359729111 0.735086679 150 118 98 
0.918464899 0.359729111 0.735086679 150 118 98 
0.919402361 0.374729097 0.735086679 150 122 98 
0.918464899 0.374729097 0.735086679 150 122 98 
0.920339823 0.389729083 0.735086679 150 122 98 
0.918464899 0.389729083 0.735086679 150 122 98 
0.920339823 0.404729098 0.735086679 150 122 98 
0.918464899 0.404729098 0.735086679 150 122 98 
0.920339823 0.419729114 0.735086679 150 122 98 
0.918464899 0.419729114 0.735086679 150 122 98 
0.921277285 0.434729099 0.735086679 150 122 98 
0.918464899 0.434729099 0.735086679 150 122 98 
0.922214985 0.449729085 0.735086679 150 126 98 
0.918464899 0.449729085 0.736024141 150 122 98 
0.922214985 0.4647291 0.735086679 154 126 102 
0.918464899 0.4647291 0.736024141 154 126 102 
0.933464766 0.359729111 0.730399132 146 118 94 
0.933464766 0.374729097 0.730399132 146 118 94 
0.933464766 0.389729083 0.731336594 146 118 94 
0.933464766 0.404729098 0.731336594 146 118 94 
0.933464766 0.419729114 0.731336594 146 118 94 
0.933464766 0.434729099 0.731336594 150 122 98 
0.933464766 0.449729085 0.731336594 154 126 98 
0.933464766 0.4647291 0.732274175 154 126 102 
0.94846487 0.359729111 0.726649165 142 114 90 
0.94846487 0.374729097 0.726649165 142 114 90 
0.94846487 0.389729083 0.726649165 142 114 90 
0.94846487 0.404729098 0.726649165 146 118 94 
0.94846487 0.419729114 0.726649165 146 118 94 
0.94846487 0.434729099 0.727586627 150 122 98 
0.94846487 0.449729085 0.727586627 150 122 102 
0.94846487 0.4647291 0.727586627 150 126 102 
0.97752738 0.359729111 0.720086575 134 106 86 
0.963464975 0.359729111 0.722899079 138 110 86 
0.97752738 0.374729097 0.720086575 138 110 86 
0.963464975 0.374729097 0.722899079 138 110 90 
0.97752738 0.389729083 0.720086575 138 110 86 
0.963464975 0.389729083 0.72383666 142 114 90 
0.97752738 0.404729098 0.720086575 138 110 86 
0.963464975 0.404729098 0.72383666 142 114 90 
0.963464975 0.419729114 0.72383666 146 118 94 
0.963464975 0.434729099 0.72383666 146 118 94 
0.963464975 0.449729085 0.72383666 146 118 94 
0.963464975 0.4647291 0.72383666 146 118 94 
0.978464842 0.359729111 0.719149113 134 106 86 
0.978464842 0.374729097 0.719149113 138 110 86 
0.978464842 0.389729083 0.719149113 138 110 86 
0.978464842 0.404729098 0.719149113 138 110 86 
0.978464842 0.407541603 0.720086575 138 110 86 
0.979402304 0.419729114 0.720086575 138 110 86 
0.978464842 0.419729114 0.720086575 138 110 86 
0.979402304 0.434729099 0.720086575 142 110 90 
0.978464842 0.434729099 0.720086575 142 110 90 
0.980339766 0.449729085 0.720086575 142 114 90 
0.978464842 0.449729085 0.720086575 142 114 90 
0.980339766 0.4647291 0.720086575 142 114 94 
0.978464842 0.4647291 0.720086575 142 114 94 
0.993464947 0.239729106 0.715399146 130 102 82 
0.993464947 0.254729092 0.715399146 130 102 82 
0.993464947 0.269729108 0.715399146 130 102 82 
0.993464947 0.284729123 0.715399146 130 102 82 
0.993464947 0.299729109 0.716336608 130 102 82 
0.993464947 0.314729095 0.715399146 130 102 82 
0.993464947 0.32972911 0.715399146 130 102 82 
0.993464947 0.344729096 0.715399146 130 102 82 
1.00846481 0.239729106 0.712586641 126 102 82 
1.00846481 0.254729092 0.712586641 122 98 78 
1.00846481 0.269729108 0.712586641 122 98 78 
1.00846481 0.284729123 0.712586641 122 98 78 
1.00846481 0.299729109 0.712586641 122 98 78 
1.00846481 0.314729095 0.711649179 122 98 78 
1.00846481 0.32972911 0.712586641 122 98 78 
1.00846481 0.344729096 0.712586641 122 98 78 
1.02346492 0.239729106 0.708836675 118 94 78 
1.02346492 0.254729092 0.708836675 114 94 74 
1.02346492 0.269729108 0.708836675 114 90 74 
1.02346492 0.284729123 0.708836675 114 90 74 
1.02346492 0.299729109 0.708836675 114 90 70 
1.02346492 0.314729095 0.708836675 114 90 74 
1.02346492 0.32972911 0.708836675 114 90 74 
1.02346492 0.344729096 0.708836675 114 90 74 
1.05252743 0.239729106 0.705086589 82 62 46 
1.03846478 0.239729106 0.70602417 102 82 66 
1.03846478 0.254729092 0.70602417 102 82 66 
1.03846478 0.269729108 0.70602417 102 78 62 
1.03846478 0.284729123 0.70602417 102 78 62 
1.03846478 0.299729109 0.706961632 102 78 62 
1.05158997 0.314729095 0.705086589 86 62 50 
1.03846478 0.314729095 0.70602417 102 78 66 
1.05065227 0.32972911 0.705086589 90 66 50 
1.03846478 0.32972911 0.70602417 102 78 66 
1.04877734 0.344729096 0.705086589 90 66 54 
1.03846478 0.344729096 0.70602417 102 78 66 
1.05065227 0.239729106 0.750086665 78 42 22 
1.05252743 0.254729092 0.750086665 74 42 22 
1.05252743 0.269729108 0.750086665 78 42 22 
1.05346489 0.239729106 0.704149127 82 62 46 
1.05346489 0.314729095 0.704149127 86 62 50 
1.05346489 0.32972911 0.704149127 86 62 50 
1.05346489 0.344729096 0.704149127 86 62 50 
1.05533981 0.239729106 0.705086589 78 58 42 
1.05346489 0.252854109 0.705086589 82 62 46 
1.05815244 0.254729092 0.705086589 78 54 42 
1.05346489 0.254729092 0.705086589 82 58 46 
1.05815244 0.269729108 0.705086589 78 58 42 
1.05346489 0.269729108 0.705086589 82 62 46 
1.05346489 0.284729123 0.705086589 82 62 46 
1.05346489 0.310979098 0.705086589 86 62 50 
1.05346489 0.299729109 0.705086589 86 62 50 
1.05440235 0.314729095 0.705086589 86 62 46 
1.05627728 0.32972911 0.705086589 82 58 46 
1.05815244 0.344729096 0.705086589 82 58 46 
1.06283998 0.239729106 0.735086679 78 42 26 
1.05346489 0.239729106 0.74727416 78 42 22 
1.06190228 0.254729092 0.735086679 74 42 26 
1.05346489 0.254729092 0.749149084 74 42 22 
1.06471491 0.269729108 0.735086679 82 46 26 
1.05346489 0.269729108 0.749149084 78 42 22 
1.06471491 0.284729123 0.735086679 82 46 26 
1.06283998 0.299729109 0.735086679 82 46 30 
1.06377745 0.314729095 0.735086679 82 50 30 
1.06190228 0.32972911 0.735086679 86 50 30 
1.06377745 0.344729096 0.735086679 86 50 34 
1.05346489 0.239729106 0.763211608 86 46 22 
1.05346489 0.254729092 0.758524179 82 46 26 
1.05346489 0.279104114 0.750086665 78 42 22 
1.05346489 0.269729108 0.753836632 82 42 22 
1.05346489 0.284729123 0.750086665 78 42 26 
1.05440235 0.299729109 0.750086665 78 42 22 
1.05533981 0.314729095 0.750086665 78 42 22 
1.05533981 0.32972911 0.750086665 82 42 22 
1.05533981 0.344729096 0.750086665 82 46 26 
1.05440235 0.239729106 0.765086651 90 46 26 
1.05627728 0.254729092 0.765086651 90 46 26 
1.0590899 0.269729108 0.765086651 90 46 26 
1.06377745 0.284729123 0.765086651 86 46 26 
1.06658983 0.299729109 0.765086651 86 46 26 
1.06471491 0.314729095 0.765086651 86 46 26 
1.06377745 0.32972911 0.765086651 86 46 26 
1.06283998 0.344729096 0.765086651 86 46 30 
1.06846476 0.254729092 0.704149127 74 50 34 
1.06846476 0.269729108 0.704149127 74 50 38 
1.06846476 0.2537916 0.705086589 74 50 34 
1.06846476 0.239729106 0.70602417 70 46 34 
1.06846476 0.276291609 0.705086589 74 50 38 
1.07783985 0.284729123 0.705086589 78 54 38 
1.06846476 0.284729123 0.70602417 74 50 34 
1.07502747 0.299729109 0.705086589 78 54 38 
1.06846476 0.299729109 0.706961632 78 50 38 
1.07596493 0.314729095 0.705086589 78 54 38 
1.06846476 0.314729095 0.70602417 78 54 38 
1.07221484 0.32972911 0.705086589 82 54 38 
1.06846476 0.32972911 0.706961632 82 54 38 
1.0731523 0.344729096 0.705086589 78 54 38 
1.06846476 0.344729096 0.70602417 78 54 38 
1.06846476 0.239729106 0.727586627 74 42 26 
1.06846476 0.254729092 0.726649165 74 42 26 
1.06846476 0.269729108 0.72946167 78 46 26 
1.06846476 0.284729123 0.72946167 78 46 26 
1.06846476 0.299729109 0.726649165 78 46 30 
1.06846476 0.314729095 0.727586627 82 50 30 
1.06846476 0.32972911 0.726649165 82 50 30 
1.06846476 0.344729096 0.728524089 86 50 34 
1.06846476 0.239729106 0.769774079 82 42 22 
1.06846476 0.254729092 0.769774079 86 42 26 
1.06846476 0.269729108 0.768836617 86 46 26 
1.06846476 0.284729123 0.766024113 86 46 26 
1.06940246 0.299729109 0.765086651 86 42 26 
1.06846476 0.299729109 0.765086651 86 42 26 
1.07221484 0.314729095 0.765086651 82 46 30 
1.06846476 0.314729095 0.766024113 86 46 26 
1.07221484 0.32972911 0.765086651 82 46 30 
1.06846476 0.32972911 0.766961575 82 46 30 
1.06846476 0.344729096 0.766961575 86 46 30 
1.05346489 0.237854123 0.765086651 90 46 26 
1.04221487 0.4647291 0.810086608 110 62 38 
1.06190228 0.434729099 0.840086699 90 54 34 
1.05346489 0.4647291 0.862586617 102 62 34 
