ply
format ascii 1.0
comment created by gply, a Houdini tool.
comment converted from .[b]geo
comment for more information about Houdini, try:
comment www.sidefx.com
element vertex 1333
property float x
property float y
property float z
element face 0
property list uchar int vertex_indices
end_header
32.8188782 -66.7471008 -109.906487 
33.8092117 -29.3502197 -33.1172638 
-43.1619186 -36.9119492 -133.433823 
-95.7981796 -38.324482 -174.670593 
-44.6986618 -6.43631554 63.6826324 
63.3740921 -26.620533 -7.6943655 
-55.5069351 -57.6057243 190.824585 
-53.7505531 -48.7709694 142.678345 
-71.6456451 -44.796051 -125.445488 
55.5732117 15.8902922 56.1949959 
-36.5147476 12.3896723 135.101288 
-1.59288359 -41.4168015 -114.267281 
-4.31995821 -53.6245079 -71.6822052 
-88.1507111 25.6142807 93.5019684 
-46.9992027 -90.5353699 83.4476318 
-72.3404388 -24.0574398 -157.054459 
95.6819916 -41.5981789 -72.5748291 
-109.919617 27.5636597 46.6007118 
-3.31068707 -32.5327911 -219.346802 
-57.5821381 3.40021539 -159.48349 
64.7978287 -57.2129593 -45.718895 
-77.2107391 20.9635715 83.3520508 
-24.4418793 36.9385643 119.132553 
-74.489502 -55.8034973 -48.866993 
-0.376528949 5.35592794 22.2007904 
-79.8432465 -88.8555908 37.0067902 
-36.227726 9.76340008 150.269333 
16.7834091 -35.8132362 -178.062424 
9.82313919 -50.7136765 -184.89679 
-50.3027115 2.25358868 -147.184723 
-90.9876404 -44.1347389 -160.728455 
-33.650795 -48.6212502 27.8327522 
-43.6886024 -94.8856659 23.6045189 
-71.4622498 -55.4769211 -39.556881 
-31.040308 -58.3350563 -172.223083 
-36.8266487 -7.42471933 119.188377 
-69.5140457 -63.7706451 -37.205246 
41.2496338 -3.03224158 19.3485107 
83.3888245 16.9676189 5.2918272 
-43.4969139 -55.6806602 -129.84584 
-58.4219475 -58.3306885 -19.5751228 
-53.1957054 -14.5350914 -149.475616 
-86.4102936 7.65694904 81.5445709 
-58.1093483 -32.0351524 -187.53038 
-91.3350677 -69.7751923 -135.228607 
-12.0678682 -27.2683544 -207.313477 
-19.9317284 -27.2989101 -167.47641 
-52.3389168 -26.2921314 126.385445 
-3.70676947 16.5330162 159.958206 
-62.7057686 -50.3259201 -134.574448 
54.2249985 35.4907112 -5.54843426 
-14.4326439 -8.78773212 100.497864 
-27.5315819 0.528517604 68.7080688 
21.4530563 -34.2343369 -201.501221 
-104.689102 -66.897583 -157.65535 
-58.2776566 -10.2781467 108.013786 
-53.0174522 -71.6177902 -43.0642281 
-55.2203674 -19.2839851 118.568108 
6.58414602 10.5848236 51.6592674 
89.6098862 25.5083008 25.0178928 
-23.2552414 -26.684454 -107.942085 
-25.0724945 -3.28477788 -94.2765884 
-93.2715454 -65.2439575 -179.551361 
70.7787781 -44.0040817 19.0757599 
33.3086548 -19.9382534 -47.5624657 
7.07761002 -47.7622757 20.3569183 
-26.45261 -63.6856689 -181.241318 
-68.7359161 21.0127583 66.6269302 
-53.817894 -72.8500443 -11.8916044 
53.9887466 -10.4075365 41.6819229 
-66.0237198 -71.0055008 -159.692062 
-93.5460587 -11.9216566 72.3104858 
-73.7845764 -48.1245461 -200.208786 
-106.472794 27.5745811 55.3931618 
51.6025925 -46.4969864 -27.781004 
-82.3652954 20.8755894 66.1488113 
-85.7531128 -76.6096191 -151.537979 
6.37189722 -47.7747803 45.7996902 
-21.1340599 -67.8585968 81.3119583 
16.0727654 -16.182188 -28.6796055 
-8.32840443 -36.4863205 149.099472 
-7.94437599 -8.54667664 11.8981619 
44.4209213 6.76509333 19.6374035 
-70.1031723 -16.2996178 143.178589 
-103.03537 -91.4778137 -190.298248 
64.5482635 13.886014 37.5129852 
11.3632298 -42.1650352 -4.20975494 
25.081171 -59.7491989 -26.9446945 
-30.612339 -71.5120926 122.380867 
76.7898712 -39.3047218 -8.62366009 
-73.3843689 -55.8011017 -124.938675 
10.4465036 -82.5060959 -113.136581 
-34.9367828 -19.5589142 44.2232704 
38.803196 35.9215698 1.41174257 
-63.6146049 8.09430695 44.1543846 
-50.4313583 -54.3721428 -70.3788071 
1.25476992 -10.0943794 -179.240768 
-10.3846874 -38.9675903 51.9867363 
-54.2953758 -45.4009781 123.344147 
-21.1402493 -32.6078529 -224.878098 
-9.34440708 -29.489027 24.9128685 
-27.9970646 -24.3584805 137.122986 
-90.6867752 -53.1917343 -146.451782 
-37.9001198 -91.167099 97.0048294 
46.8571854 -57.4735794 61.4598236 
-23.1125183 -61.2111015 46.631176 
77.6983414 -69.0751801 31.3297806 
-40.5890732 -43.2259903 -50.0325623 
-18.0230198 -68.0146484 -220.175461 
-52.4188499 -69.1948242 49.1984329 
18.5827084 -34.1365585 -113.498093 
-107.31649 2.42221236 58.9213982 
0.628391981 -26.0895214 -208.538742 
-53.0543976 -76.8203049 -268.737457 
-48.0371628 -34.4913635 -228.075256 
-111.626053 47.5888062 58.9100227 
5.93253422 -70.5586853 32.2699165 
-81.2489548 -25.297636 145.118332 
8.44769859 -45.6752739 161.657928 
-64.2643967 -92.7656097 110.275017 
-47.3047256 2.65639448 156.517746 
-61.6230621 4.22059345 100.397911 
4.93651772 -17.2509327 -173.936951 
-119.144707 -65.2925262 25.7026482 
-37.8462067 -29.0803413 -121.498077 
-42.9396133 -12.288271 29.0982666 
-85.6640778 -35.7516899 65.8320389 
-43.1621666 -25.6874161 -229.862915 
-15.6261683 -48.7555161 -225.637009 
-94.6410141 -62.1649132 68.1915131 
6.96236753 -81.8488007 -55.6247864 
-22.0698376 -72.7506638 -107.763336 
86.3632507 -2.47393513 34.9942398 
-107.873154 1.98035514 -152.169327 
-76.0972214 -19.9265289 125.425514 
-40.1532364 21.7537041 104.752693 
-64.1227188 67.7321091 106.079369 
-89.8897858 -1.41581202 -175.296753 
-73.8412857 -40.7293701 137.322418 
4.95272827 -36.5733757 63.5537758 
-32.9221382 -0.593338013 142.631714 
-8.2944479 24.7456741 127.984177 
66.936821 -81.5004883 11.8100643 
80.4588852 -5.03760815 17.6103745 
-40.5009232 -51.3893471 6.62874365 
9.01879692 -41.5014191 -219.440781 
-50.0240021 11.5422707 -138.762817 
-76.6814041 -11.8176003 -144.380875 
-54.6099625 22.3181229 -131.759781 
-93.6468506 -58.5838051 -129.283997 
2.43647814 -44.1801224 -202.458923 
12.9549484 -6.90289974 18.5431328 
-41.2372513 -61.5913734 165.577988 
-49.9017868 -6.57704401 124.563828 
-97.1262207 35.3243599 113.152603 
9.14510727 -11.9164143 -2.22251296 
-78.9272995 15.789155 157.971207 
-64.4740448 -32.6864395 -57.7222366 
-103.363441 -24.5010262 -114.843307 
75.8310547 5.85252333 -5.12303209 
-68.6081619 -84.6779785 -189.919083 
-9.75778484 -63.6345978 56.0990868 
-61.176136 -38.2543449 -113.950386 
-33.2672501 -20.0594616 72.0432434 
-22.7325897 -39.0243874 3.65404797 
-57.6917992 -27.5004272 -51.1451035 
-43.5163803 -52.3235092 148.027222 
-104.495483 -46.6577682 -173.771851 
-36.7692871 62.6220169 111.304001 
8.05811119 -5.98852348 33.4144478 
-27.9354954 -34.9506607 -56.5987816 
-0.616910458 1.53041184 -163.972351 
-6.63890314 6.52852488 138.363312 
-29.9622555 -76.2467499 -198.135498 
7.68573713 -59.5420723 40.4089966 
44.2294388 -68.2752686 -82.9807663 
-77.785347 -62.8119049 43.4701195 
-20.0806599 -15.9243336 -73.7597961 
-105.97731 46.2576942 41.8065872 
5.75044155 -34.4908066 25.247385 
-58.4595871 58.7560196 85.444046 
-23.556427 -65.7792206 -96.2825089 
-58.1258774 -94.6188736 -170.539886 
46.9374542 -11.3710213 10.33078 
-51.8840141 -52.7316933 77.4467621 
-82.1748505 -76.8098068 55.5786591 
-18.1562424 4.99201584 -156.619293 
-8.61683559 -45.6726265 -35.0361977 
-79.9247742 -75.4811783 40.0159607 
-43.2991714 -67.9383926 -281.334045 
-12.996439 -61.2297783 128.068817 
-52.6587753 -51.3916702 161.831818 
-76.3268433 -88.7992706 -56.2978592 
18.447998 3.97370291 2.53021812 
-3.15936327 -89.7327194 84.4483185 
-73.7187424 -68.4321365 142.144882 
-16.7456665 -75.3059769 -100.063309 
69.7962875 -79.750412 39.798851 
-86.6913528 -63.1567345 86.5277863 
63.4961662 -52.2861061 -31.9007378 
82.9718857 -58.7500954 -27.353302 
5.04576874 -17.713459 -201.505722 
-87.0124664 54.245903 118.843658 
70.0272141 -40.7100372 51.5775833 
-13.093174 -18.4412441 34.1208916 
-0.73582691 -62.4498177 20.6545029 
-35.1245651 -67.2019043 -221.899063 
-76.2729492 -52.1418915 88.5714111 
34.2978554 -50.7471619 25.8265514 
-25.6471996 -57.3725281 -257.039703 
-50.5029945 -25.3935356 74.6052399 
59.949337 -3.57090712 -21.0151081 
-42.1311798 -54.3243675 -209.333221 
-43.5814133 -16.7208824 37.4876785 
2.33010077 1.86828375 115.423935 
52.5439682 -58.1207237 121.404053 
-21.2810783 -38.4085884 -184.775879 
-14.1955347 -57.3585167 -189.063766 
-11.4423475 4.66725111 16.547823 
-65.6495667 -50.961422 -168.214691 
-23.6486111 -42.6029091 -78.0215683 
71.3854523 -56.2373276 75.9158783 
49.1995468 -70.6367645 -3.87500739 
-2.62517715 -38.6529732 31.2528934 
47.4905777 -66.5057297 104.201515 
-65.3192825 -89.6041718 28.3841267 
-12.2817974 -41.3499298 169.484619 
3.60060406 -62.1973572 -66.3225632 
-65.3296051 -51.1592026 130.552444 
-30.7362843 -46.7434387 -202.821243 
57.1765518 -2.96863365 -6.26964951 
-22.5074253 -27.4662838 -214.450668 
-49.7582397 -3.1741221 -212.399597 
-12.7002277 -80.1317291 143.583374 
-40.9536476 -40.2639542 171.13887 
-5.31794024 -30.347229 -33.1466446 
-55.9058762 37.2297363 109.308243 
49.2477341 -42.0172882 36.4092903 
-117.476517 -3.19634867 69.8527832 
-50.8882523 -80.5083466 -153.000763 
-67.3332825 39.0233841 71.1390533 
-91.8176575 -47.6886635 -186.894608 
56.679554 -15.0658731 -28.3910961 
-1.24579954 -72.1679153 128.436096 
-79.7504349 -67.2247925 -143.512421 
46.6351624 -27.5761051 50.1893959 
-55.8538017 13.8300095 129.505325 
-76.9807053 -68.440239 -167.149124 
-25.6719322 -58.0875473 -269.953613 
-62.8119659 -35.697403 96.5681152 
-35.8646164 -86.2075043 -9.62282848 
72.6872787 -8.02840805 30.6337337 
-31.9661751 -79.9884338 78.2960281 
-31.3412342 -7.91733122 95.417511 
-89.6312027 -31.4883289 -155.25383 
-0.187346667 -76.803627 -46.5321388 
-68.6741714 -95.3677368 75.6342621 
36.9695206 -34.1881599 70.0887756 
-46.1699677 -13.1758375 -115.802643 
-59.7094879 -87.9798889 65.4312363 
-68.1484528 -0.116807051 -179.161011 
-74.783699 -62.1682358 -134.327026 
-103.109467 -46.3380089 -26.967659 
-30.2927132 -40.5331192 -109.325539 
-69.8909607 -35.3417015 -141.577667 
-117.218933 14.9296064 66.8298187 
-70.1854706 23.4324436 44.4248466 
-99.0794067 -24.5402374 85.8283386 
7.31157827 -2.03177905 41.7913933 
-34.570282 -55.8749046 -43.4719963 
-33.4755707 -69.6687851 141.600082 
-38.3578911 -20.52141 156.808701 
-39.6773453 -16.1554184 -187.707138 
-91.3406296 -90.9468765 65.9059296 
55.8204842 -20.2276726 13.6958294 
-13.5842714 -50.4869537 -16.8225079 
36.0112305 -54.0856552 -5.34436941 
-38.0249748 -69.3160019 45.9695282 
-17.5024719 -36.6949768 -133.152191 
-64.5965042 -9.90355015 -142.341461 
65.3866882 -64.4329453 -18.7235622 
-88.0197144 -28.2052135 -110.019821 
-58.2834511 -69.8642731 -210.755402 
-36.3244095 -10.1072464 -152.675949 
-41.7205162 -2.92552662 139.530563 
7.3477993 -69.3090286 -72.7431183 
12.549221 -80.5518875 -75.8452682 
-44.6847725 -54.7773361 98.7142944 
-50.0913773 -80.9736328 128.848663 
-33.5189972 -33.2693634 -232.138596 
-12.7302532 -47.2365456 150.331085 
-26.1745415 -7.86371374 -143.218231 
-69.5006714 -39.4074478 34.9694939 
-84.344223 -57.6402664 -205.638992 
-83.4661407 5.11534119 47.4704971 
-91.341507 -39.7033463 -29.6281815 
-3.45876098 -15.6693707 4.87862873 
-23.4136314 -20.6399155 6.87484169 
-70.6959839 -31.0472527 -32.9587669 
84.0516434 5.57077169 29.2080441 
-49.434227 -37.8939896 -118.615326 
-27.1025734 -40.1243172 -240.712631 
-42.7740326 -65.5472641 -85.6619568 
-15.9672365 -36.554615 -161.106476 
-27.5559406 -25.7781467 -126.98848 
-66.0941315 -5.52534771 151.489136 
-31.8726082 -59.6755676 -189.271667 
39.5113029 34.1178169 27.7797127 
-79.151062 -95.8091507 113.298607 
-41.5108032 39.6375313 122.948082 
73.4701233 -93.8053589 32.0399284 
-15.3365488 -2.48576188 -238.77063 
40.0230255 -85.0313644 -125.210335 
-82.285202 -49.0474586 -37.5162239 
-77.3073273 -59.0072098 -145.280731 
-53.0622597 -6.56790447 -183.264511 
20.2552872 -72.485199 -30.996418 
-99.9151154 28.2899551 68.0258865 
-25.8714008 -65.4248276 -231.325806 
-101.704689 -38.4118271 -154.794556 
-91.5070496 -87.437767 -142.490814 
-57.0428467 -10.9953117 -205.256119 
-13.5775146 12.7343607 144.441727 
-43.3612556 -20.1449356 -152.325226 
-114.181564 -58.0357857 -30.5010395 
-10.0056248 -48.9635201 -253.691803 
-43.2863655 -51.6079369 85.2247314 
-27.8671837 -31.107851 41.6439018 
-45.3417435 6.90726662 97.319809 
76.9128189 3.46102238 53.7274437 
59.5131531 8.08796215 0.864690661 
-21.5184784 0.475915879 22.2022133 
-60.9504585 -50.2019577 -202.700684 
-67.7906189 -41.442585 108.567642 
-28.869297 -83.4040375 -211.330887 
-74.7278824 -4.89532328 77.4068069 
-92.8667145 -83.7852097 184.229797 
-29.8380299 -18.3176575 -143.992294 
-31.2171783 -48.8781357 57.3407822 
-33.4341736 -61.71455 -9.89151955 
27.1825066 -79.8861618 -81.7745972 
75.572937 10.128788 21.7424316 
-56.3592033 -25.0881901 -169.871811 
59.0894203 -59.2871666 12.8961897 
-36.5303612 -52.6447754 106.123245 
-124.94519 2.79051185 41.6400108 
-19.7410698 -39.3956985 -210.89006 
-58.0219269 40.2093735 126.557915 
-41.7400818 -26.3732548 -143.858887 
-69.2132797 -34.4367828 83.440239 
-49.8469124 -59.7640152 -88.1364746 
-0.732728481 -59.7711067 -223.090561 
-2.71042395 -24.2524834 -46.7349243 
-71.5181885 -60.9421043 -55.4476013 
-87.8404694 54.8518562 58.3298416 
-26.5081139 -82.1199951 88.8088684 
-109.928368 -55.3644638 12.5899239 
-25.763649 -87.1199951 -125.054214 
-62.1787033 -62.7146454 14.314189 
95.0647659 -92.6035004 -44.7112312 
-93.1760483 -77.7856598 -174.032593 
-79.1870575 -49.5112686 -205.917908 
-82.4078979 -35.3135109 -180.818207 
-25.254467 -53.7255745 -225.811127 
-94.7748871 3.84546924 93.8516693 
-51.8463135 22.4296417 117.724228 
-76.6666107 28.1463299 119.981682 
3.45934033 -85.3108292 -30.5077019 
-44.4896049 -43.1250114 103.317001 
17.8883114 -78.2342682 -31.4398384 
-29.0377998 -10.13762 14.1167116 
-112.997948 32.9959869 74.1838913 
-68.940506 42.1151123 128.429489 
-25.2129803 21.9048405 130.103226 
10.4715385 -81.609642 -199.629883 
-32.362381 -22.7453499 169.734818 
-15.7640295 -81.9340973 76.5503616 
-44.9038773 4.47066498 92.0346527 
45.8345032 -51.071434 -92.5391464 
15.6664667 -63.3256454 60.5059586 
-102.84906 -4.13241482 -173.503906 
-67.8784332 -75.9032822 -41.7688065 
-44.6171646 -57.5352859 -183.440979 
-57.7131958 -70.3326187 62.8142395 
25.5141621 -36.2108078 5.06231308 
-31.1640167 -20.5429192 110.598045 
-65.0538483 32.6919289 126.284241 
-79.1762085 -32.7371864 87.7684708 
-13.898571 -17.5906982 -163.700058 
-45.8302078 -68.304245 15.2949123 
-109.382317 -6.07008028 79.9069901 
59.7202263 -45.2088776 63.5313416 
-35.5643196 -49.0128059 -139.885941 
-87.5019302 -89.6932602 17.296093 
-74.4154358 -18.0150242 -170.134216 
2.11942363 -62.3650894 -241.549103 
-47.8879662 -53.9887009 -189.899078 
-120.33902 -87.59655 46.5195694 
-12.1441879 -66.1176147 -239.51413 
-47.1297531 -14.6319828 -139.133759 
21.3777752 -25.2927437 -40.4504547 
43.8801613 -58.5049286 76.9940643 
71.1298752 -27.8940334 21.2166786 
23.3855362 -60.254837 30.5081463 
-23.4378052 3.76693392 152.375031 
-47.5877571 -56.4073715 -17.7776012 
-73.4755478 -87.5697708 -172.373413 
-43.9186668 0.984755874 -174.172058 
-20.0680027 -69.3215866 -139.645416 
-109.555603 43.9843025 81.9452896 
-95.4493866 0.438451409 -147.214264 
-55.8596458 -35.6323662 -173.373871 
-91.2433701 -37.8130302 -39.1886635 
12.1418915 -70.8065872 -106.052528 
-39.8771248 -81.9368591 106.506142 
-37.3059311 -35.8539734 46.5848732 
63.985775 -50.1455994 2.48871231 
-53.5882187 -57.8411942 -211.809479 
-2.17818713 -13.4221668 38.2475967 
-21.1132927 36.9075584 139.358612 
68.3443451 3.42398405 59.7332535 
-56.6405563 46.2469559 113.992661 
-51.9203682 -45.4147453 -207.744598 
4.44514084 -58.1771393 141.449188 
-41.0284462 5.03786993 49.7769508 
-47.3223648 -73.6887512 -193.074753 
-33.6845169 -39.2099228 -180.140442 
-68.699791 28.5008469 150.665283 
-14.3232269 3.94154644 32.8867607 
-26.7704678 -42.2439384 65.8683472 
-20.9943619 -33.8887558 -145.927536 
-23.4156609 19.6777649 152.307877 
36.9979477 9.21429729 2.28082609 
-34.4646301 -8.75990963 173.350769 
-68.2822723 -29.6506042 -148.899979 
52.3540421 -27.3454685 32.7235565 
-53.0964661 -61.9105759 105.447731 
-64.1640701 -6.85131884 80.4359207 
-46.1096191 -1.63885784 -135.378052 
-10.4880648 -72.0987473 -60.5356331 
-10.5478401 -21.2922153 -261.578918 
-67.638031 -23.9428005 119.012131 
-102.830933 31.4327927 88.4051208 
-45.0336418 -31.6759739 -246.109497 
-67.1698532 -40.8983727 53.2646828 
-88.8191528 -12.0668879 -128.360901 
-76.0229416 -14.9705372 -160.208939 
39.0042267 25.2599411 -14.2891998 
-47.462429 -6.32993603 -160.557739 
-88.6894302 -20.5216618 64.3938141 
-5.49272633 15.3975592 23.54529 
65.4414978 -86.6636963 -37.325737 
-34.9017906 -48.1622925 151.283752 
-23.1198215 -40.4780502 -195.78299 
-10.9808064 -82.6813202 -58.5359421 
-20.5327682 -14.2685137 59.1221313 
27.9601192 -64.7768784 -4.81773853 
13.4809608 14.6774426 2.35539412 
-10.0375662 -45.7298775 12.5328255 
64.2330704 -6.36543226 37.4249687 
-13.8188114 -0.231194854 -235.033569 
11.6625948 -50.3553391 -55.7144051 
-8.03174114 -68.4693832 -72.2479019 
-92.2613983 56.3696213 63.4621506 
-11.8982534 -54.3287849 -207.55191 
-74.2490616 -39.6020508 -101.11982 
-85.7756958 26.3560753 119.552071 
-28.5395565 -53.5211983 75.1416016 
-6.88134098 -65.509285 150.01413 
65.9545593 31.6112347 47.8753662 
-63.4795151 -7.97243881 67.5510864 
-13.7609253 -57.7576752 17.6702576 
-29.7070637 -33.8992577 -164.204849 
-105.91497 -34.50811 -168.644608 
-101.337677 -72.7947998 -13.5001411 
-6.43027067 -76.755661 -14.4804955 
-62.1748352 -33.0485649 125.98365 
37.682827 -45.9174805 -171.109772 
50.6861382 -20.4043083 0.532670259 
-62.9657669 -47.080513 -178.816864 
-63.3578796 -56.4575806 142.195145 
-61.7130051 -25.0134563 152.029816 
-5.48880053 -24.7222214 -88.7602615 
45.6542282 -30.66679 130.731125 
-80.1205597 -41.4435425 -5.63414001 
-102.473938 -16.3273582 -121.61232 
-64.3996048 25.9224663 83.2671585 
-4.23714447 -66.3551331 -193.510437 
-14.5850773 -48.7887573 -114.864006 
-46.186615 -35.8648758 131.737411 
30.4369068 30.5044918 -10.9651194 
59.3255424 -14.0091019 -13.4050541 
-79.08461 -22.7554417 -147.745621 
-85.1949997 -12.278739 134.022766 
-5.18837547 -39.6188507 -243.489319 
-16.5597134 -69.5238266 -189.342255 
-15.4902916 -56.4400024 152.053101 
-50.4488602 -40.500946 -142.394135 
31.858902 -49.087532 4.70559597 
3.50072861 -65.6573715 -114.762711 
-0.226743758 -36.86203 126.52504 
-86.5616302 -55.512104 -204.566711 
1.98998225 -74.4912567 104.344978 
-36.333004 -82.0918045 161.372314 
-52.0684853 41.7965202 97.937706 
87.0809479 -39.4561005 -64.2686462 
-54.0761261 -47.3555145 63.8858986 
-54.5353737 -64.9401093 -181.027802 
-45.8082237 -63.7677231 -198.121796 
-85.7854309 -21.5954266 -133.093033 
-28.5059776 18.0958977 -151.175156 
20.9193935 -36.4683495 -62.1469116 
-98.53125 -4.38012314 100.470673 
-13.5836 -71.451767 116.441101 
-70.2310181 -51.2108345 -13.4844551 
-68.5931091 1.47405958 -149.726379 
-90.062355 -53.8289566 -172.246887 
-6.28668261 -38.7216263 -0.308032095 
50.3061333 2.04460168 -36.1794395 
-84.7279816 -55.8351593 -124.501831 
-31.3768921 15.5716066 -137.108521 
-96.9689941 30.5809174 105.028992 
-16.80863 -66.2382889 -254.313797 
-32.1014862 -32.1486664 -141.42218 
54.719368 -12.4904327 65.5135956 
37.6448631 -46.2806892 -17.9635315 
-0.274593532 -63.2034836 -43.3902283 
-44.3496742 -66.7956696 -35.522644 
-58.4486504 -18.6763458 144.699539 
30.0170441 -59.375412 -85.1816559 
-50.6520042 -62.1092606 84.9351578 
-50.9747581 27.9186554 106.592896 
-2.38710737 -9.41171551 -161.559479 
-101.156029 -47.0583687 -126.595528 
-64.4121552 -17.1279564 84.0334625 
-80.2069397 -85.6242981 163.840881 
-26.6133633 -52.9299927 -108.141373 
-39.8903313 -70.6112366 75.4106903 
-8.68117714 -76.3759995 -50.2416153 
-0.789768934 -57.8853416 9.73854256 
42.7403679 -31.9492188 2.18783307 
46.9465256 37.6472473 16.5736275 
-20.3616886 -89.5827866 -9.57406807 
4.8044796 -37.6256485 -92.1940536 
74.0932617 -31.9861622 -19.2816505 
39.5088348 9.23566437 -31.3406315 
-50.4155922 -44.9041977 -164.72731 
-105.177238 -79.362648 -43.6847572 
10.3931036 -60.7162704 57.7457428 
-49.4780998 -37.9711494 148.616531 
-59.3039665 9.19283009 -148.875137 
-68.2849731 -73.7866058 -14.1020164 
-88.7512665 -69.417099 -2.35766888 
2.25765967 -84.2028503 -239.228333 
-80.2397766 39.7505112 85.1396408 
-28.2025471 -21.9609776 150.064926 
-13.5429859 -66.9173508 35.757019 
-10.6405916 -92.5080109 13.6995773 
-18.5155983 -25.6940079 -136.275681 
-59.3346672 -81.7531738 151.75824 
-74.9947586 -0.885517538 93.3811874 
-77.9789124 -17.0564823 80.6454849 
-11.8924026 -94.4779358 -101.280472 
-85.2623596 -71.8143616 71.8180695 
-92.3280563 -42.8702888 -136.655472 
-36.481945 -58.8961906 157.129562 
-54.0699387 7.59044075 147.306168 
-78.248703 -12.1537743 150.625519 
-9.57080936 -5.67638206 28.085041 
-62.498436 -78.5135269 55.1091995 
-83.9455719 -1.34742594 -119.237465 
-87.7616882 52.697155 78.2642365 
75.4161301 -49.3471298 -67.5085297 
59.20467 -6.6617589 18.7841015 
-23.8337421 -9.79362488 -156.905914 
67.961235 -68.7718582 14.5585003 
-58.4548035 25.2642498 132.03125 
-60.1672134 -46.3924866 -36.8027534 
-82.1898727 -23.7341118 -122.228813 
-123.109612 37.1786118 50.1123199 
-27.4349003 -75.2294312 -182.232468 
-22.112154 -35.519989 -117.94545 
8.73269653 -0.86833787 3.2877512 
49.9778404 -57.4049149 -55.3260155 
-25.2888832 -41.400959 -171.407837 
-9.41087151 -57.2510948 43.0824509 
-75.036438 -2.03601861 67.0960922 
14.4947071 -77.9154816 18.6959229 
-4.21008825 -62.0692902 104.751961 
-40.6204834 5.68228006 -164.005264 
-104.07283 -28.0127831 -160.164185 
-62.2798843 -47.4917603 199.508636 
-37.8589249 -9.73846149 -130.326721 
-74.1854019 -44.0836296 98.3511581 
-32.8610039 -12.0875616 83.7900772 
-11.8233442 -22.1957874 -64.1913071 
-100.973976 -74.8195572 -180.275513 
-100.858269 -19.1813698 -167.538727 
66.7962265 -40.7900085 49.0095711 
-24.3154659 -69.5933838 154.253265 
14.5383701 11.6944208 31.8084831 
47.8555679 -85.23349 7.37289524 
69.7121811 -16.5011044 -30.6676598 
-37.3095207 -51.3360367 -54.6991844 
47.0363655 33.6218185 -3.82028103 
-99.0452042 -21.102562 -151.200989 
26.5867558 -50.1376877 -45.4771423 
-58.8033829 -23.1623497 -103.902245 
-126.874573 23.9133873 42.9514999 
-56.3708954 -40.8568268 111.641335 
-28.8707199 -72.9876251 -259.810974 
17.2607803 -55.3727379 -52.1428413 
-27.7417278 -72.29039 -216.130371 
51.4188118 -40.6919365 47.7075386 
-53.8921089 -56.40588 -199.551178 
-98.1133575 -0.442750692 77.1779633 
-87.8057098 -81.5776825 -188.956406 
-38.7323112 -61.3894768 116.167648 
-39.1436653 -73.5273132 -170.135818 
-32.4765129 -54.970829 -156.332642 
-29.9377613 -55.9226494 -208.634277 
-71.4422302 -15.7170601 60.4460106 
-102.203728 39.8111572 62.9954109 
-52.9517746 -50.1894302 -101.59787 
77.6341171 -78.5888748 -45.6503067 
-110.094543 -60.3976898 35.5970726 
-29.7061157 -44.8815155 -13.495822 
76.8767014 -34.3722153 63.2820702 
-8.6891613 -82.8126678 122.699104 
-36.6273117 -30.0932579 -18.3334885 
-95.7922745 -31.9786263 57.0463753 
86.639267 -48.8859253 -70.7993622 
-80.9026413 -9.18938637 -172.749619 
-40.7848587 35.5038605 144.185089 
-83.5764618 -64.4265137 -172.532135 
-30.8395309 -32.6433945 33.2972717 
-41.4130859 -44.0524559 -236.931412 
-78.224823 12.2832508 -136.367325 
-100.215401 -19.4240742 -134.021317 
-94.7095795 -91.8964462 83.3023529 
47.5657043 -62.5258713 30.0122223 
-81.6182785 -56.0489655 165.002197 
-84.408287 -77.74543 143.265625 
16.4452343 -15.1797676 -11.9076662 
-41.8824463 -68.5849762 -96.5247421 
-73.4276276 22.143755 123.746521 
44.4935913 -17.1711521 -17.7504463 
-80.7006073 -11.7550049 65.329628 
-107.348862 -40.269146 -127.07476 
52.627655 17.4189758 12.3348093 
30.5710659 -16.3601475 -22.4754581 
-74.7083588 -40.3708954 -201.154236 
-39.7937088 -53.8238678 -116.793266 
45.8279724 12.2626591 35.5046806 
-68.7743301 10.7896919 92.4170151 
-59.2637863 -58.0558548 45.1107178 
-70.5693588 -35.7308159 -177.748047 
-87.8598099 -90.069046 -207.60379 
-10.0016975 -11.6455355 164.829514 
-45.6808395 -67.7514725 -215.13826 
8.63831425 -87.7952652 44.579483 
-23.4834709 -26.1131477 63.4990654 
33.2799301 -35.4611435 -98.877533 
-63.4790649 52.9436607 103.328804 
58.5262146 -26.1678638 -43.0348206 
-70.1786652 -75.4553986 161.040833 
18.2623215 -24.9903069 6.80416679 
-40.8696518 -29.8798065 -49.7395973 
-75.8718338 0.441264838 145.282639 
6.75546789 -46.2396812 -152.103973 
17.8815613 -10.3014336 46.4986801 
-113.10601 15.3975668 82.5076294 
-106.911079 53.2079964 73.5578232 
-82.1470642 -62.3667564 174.404099 
-78.3436432 28.0247879 152.913971 
-75.4240952 5.21487045 83.5860596 
10.0970602 0.337611496 23.1397114 
11.4133186 -69.363472 -22.0194321 
-88.3421478 -61.9274063 -149.612305 
-36.9556656 -51.6990509 -10.2078466 
-33.8211441 -50.6800156 -192.894623 
-32.0339546 -52.4431038 66.4707947 
-42.6110916 -32.646286 102.120415 
-94.9978104 -66.1384125 -197.096252 
3.82879329 17.15835 40.2603264 
-20.387043 -66.9501724 -55.2414894 
-75.8136444 48.8510971 137.499817 
-47.9685783 -25.8048859 167.784042 
-9.30960751 -13.2836542 115.44133 
-51.0932541 -46.9105225 -179.530182 
19.6359997 -79.9822769 -96.7994003 
-41.44701 -51.0786324 118.315826 
-52.4008331 -74.2673187 94.2474213 
67.8011475 -40.4929581 -71.7335129 
-66.9493637 -63.0304413 -169.297958 
73.0512619 -46.9735527 69.8328629 
-5.51069975 -38.2801704 -30.3441296 
-51.6425896 4.58745003 129.935989 
-10.7508259 -3.31526518 150.786911 
-30.2909927 -23.3472748 -153.293777 
-9.86898422 -36.1290588 -232.64798 
31.4742069 -80.3291779 42.7582703 
-63.608429 -69.7506866 82.8417511 
-96.5207443 -73.13974 -143.204727 
-10.5826321 4.63922024 -177.037109 
-97.1228027 5.9409647 131.005295 
11.4875469 -46.8940582 -65.9663544 
-44.7760086 -88.385849 -167.17334 
-80.8591003 -14.3144159 92.2980194 
-27.3268681 -45.8427505 -231.652344 
10.3392267 -72.9784241 -126.51741 
-63.1630936 -64.9692688 219.595978 
-59.3452301 -27.8951168 87.8427353 
-75.6196899 -28.8910713 134.29924 
-104.364525 -19.6850014 95.3703461 
12.0918684 -52.5957031 -220.271027 
-87.9309387 -19.8336201 -147.053894 
-0.657723188 -77.1266861 -66.570549 
-96.954483 -87.037941 104.759758 
-1.72633922 0.82934624 36.8202972 
-47.9564209 -18.7779789 -126.829544 
-32.072937 -40.4343109 -131.601776 
-58.8688774 22.1059189 143.429672 
-1.0691129 -22.5139618 167.865799 
-23.2041836 -27.2133446 -239.148056 
48.6361961 -42.2076416 59.5707245 
-75.9542236 -25.3534927 107.228943 
7.71067238 -53.3034401 -235.178131 
-112.735443 -8.61375141 -142.509872 
-85.0012207 -74.5658264 147.015915 
-11.4255476 -48.4369812 138.150421 
-35.970005 -32.432991 -14.4937563 
-30.4838619 -36.8857994 -153.393982 
-12.4435139 -72.8182983 16.5532475 
4.47959089 -53.8899651 -94.8992462 
-4.80850792 -66.5900269 -57.9770012 
-55.3505096 2.73176336 81.4486389 
-69.95327 -30.0653515 60.9710732 
33.1270523 1.52488041 -35.0342865 
-8.5673399 -50.0346527 120.723557 
-16.8946915 -3.54389215 -180.044174 
71.6539917 30.5374641 24.195879 
-23.9153862 -50.4032555 -1.79093719 
-56.5082169 18.5614662 -167.580292 
46.9885483 -47.5829277 -143.547363 
-13.094245 4.79056835 -150.057266 
-50.6965218 -45.9676971 -153.126236 
-52.0156631 -26.680397 -141.853592 
0.75200808 -62.2062988 -14.5666761 
45.6156693 20.0987988 -21.7015133 
58.8262863 -3.01956081 50.5042763 
-101.448799 17.3939819 38.5715218 
72.9479446 19.5947647 -7.97240496 
-59.5050812 17.6435757 109.250992 
-60.1546745 -41.192337 -195.810333 
-86.1216354 -0.840503097 68.6040421 
2.7582252 -25.2043762 146.373688 
-35.5127449 -81.7037048 -277.607819 
-53.82024 -82.6648254 -31.1940327 
-13.3620644 -45.2115936 -76.0353928 
-29.4150963 -68.169014 87.7556 
-94.205925 8.29032898 46.4945412 
82.5876923 -55.8799019 -57.4944572 
-30.4860172 -36.519352 -207.356323 
50.0632935 -21.0969296 -20.5686302 
-7.41656971 -71.8932495 -86.3492889 
-32.1747475 -50.0312958 -67.5772247 
-45.6774864 -58.3416748 211.306061 
-26.4080887 -65.8973999 -121.661758 
-73.2276764 -34.624939 -22.8105087 
10.6103449 -64.8937836 -229.545258 
52.9993286 -34.0982285 8.10489845 
-102.876694 -48.8361816 -12.4041452 
-49.8812904 -14.4388885 141.036453 
-29.5278587 16.7361336 162.791992 
-5.56859112 -23.1181259 -148.775299 
-33.143486 -53.3298187 -81.0894165 
-42.817688 -41.5274734 -67.7073593 
-10.8618593 -65.1796188 8.32356548 
-42.4664459 -28.8766327 77.9255219 
-64.8857193 -79.100708 176.696533 
-52.3703041 -73.8516693 73.3021317 
-36.9348221 -53.9464912 -245.096619 
49.6232033 4.01272011 -9.7002697 
31.3464584 -80.8102875 -103.915131 
13.5051317 -10.4673347 8.91523933 
-85.1792221 -50.5560493 207.644714 
-71.4006195 -55.6168289 114.105888 
-10.9558563 -27.050251 111.780701 
-86.3551178 -83.1599731 -39.4590607 
-11.2090511 -27.7573109 -182.747253 
-26.2521286 -15.616024 -175.218735 
-71.3728027 -12.9974413 114.239624 
-19.4128723 -57.7599335 171.314163 
35.0378304 -60.4998856 -148.60907 
48.9926071 16.9520378 -1.07685328 
44.8722115 -0.645598114 0.452011704 
-113.750717 -19.4787922 83.9624252 
35.5264168 -45.7277679 12.1189137 
-5.05294228 -72.6504135 -225.330841 
73.0863037 -15.3810873 54.7848015 
-17.3299618 -3.01759982 -115.911316 
29.0244617 -31.1218681 -5.30645227 
-99.7560577 -14.9821138 60.8072815 
-56.9246941 -41.1517143 134.31192 
44.8681946 -35.9903221 17.3739738 
-108.402115 -62.2457047 47.7236366 
72.6278458 -4.31245613 13.9558134 
-53.9054527 -68.5361481 -156.269226 
-109.144028 -55.6340752 -41.8198547 
21.9886894 -32.4470749 -172.613464 
-0.144230068 -39.1209068 -141.120941 
-17.6383095 -40.4676056 -27.2095299 
-83.4454956 -66.6875687 -55.4793472 
-86.0577621 -70.3809128 -34.8250008 
-14.2520952 -45.5983047 107.496689 
-0.00118136406 -31.1782875 -55.8979721 
-2.94883633 -42.3179474 -24.9840698 
-33.197731 -42.6979675 -95.0689545 
-12.8388014 -22.0979557 6.90438509 
41.353363 -15.5542755 40.8744354 
-7.74561405 -32.637104 82.6540451 
-27.0149651 -32.5556221 -96.2696152 
-108.534897 -95.4738464 -174.180313 
-46.5025024 -46.462822 45.2398148 
-60.9000702 -92.685791 -199.033112 
-86.1076965 -33.4890404 -44.1711044 
-88.0126953 -14.8094454 104.685646 
77.7336731 -38.8638535 -29.5024071 
69.2617722 -15.8080492 19.1091423 
-87.4629974 -60.1355591 111.599747 
-60.8967667 -56.4114685 -49.5333099 
-18.7144089 -27.2395897 32.8768196 
55.8823776 -62.527523 -4.33636951 
-9.94442558 -86.6015778 94.6919785 
-4.55701208 -6.12796068 -188.344238 
-35.8232498 -80.9722061 49.3528214 
-39.9813652 -58.9178276 -143.511383 
40.4278755 -25.6827927 32.1409874 
-69.4222183 -17.7148552 74.7212524 
-28.9549675 -39.8225708 134.408966 
-32.1969261 33.8450317 154.105865 
-14.9975052 -47.4287262 80.4342804 
-75.7217407 -59.0688934 -196.385742 
56.044632 37.946476 5.19814634 
-97.7157898 -47.4729347 -57.2166595 
3.88794875 -21.697382 -8.31617069 
-26.7338848 -5.00583982 -209.027924 
46.0213203 -11.9637432 -6.25600052 
-62.8411789 -71.0130157 -24.4365482 
-19.5922852 -71.116478 96.973877 
-47.5330467 -26.0549564 66.1707535 
-20.5996628 -3.49957514 -78.4781342 
4.84148598 -33.9197388 139.589783 
-30.1450348 -26.2529736 20.5822315 
-8.85333824 -40.6335449 -208.410522 
79.4769974 5.45320845 44.2676086 
-105.099831 -30.1573238 -145.75296 
-112.840668 -46.2404442 -141.812378 
86.8027496 2.71167326 16.8749352 
-93.0817032 -54.26297 36.147377 
-56.4759827 -17.7753601 -138.600662 
-22.6253529 -38.4681969 126.236656 
-30.0513821 -54.329895 -94.1528244 
50.7167168 -32.3004379 -8.49463081 
-46.598835 -70.4339447 60.0457458 
-52.4361 -1.45379305 140.309143 
-11.2138529 -86.1142044 -218.538986 
-0.861247063 -76.2866364 -206.984451 
-56.0138779 -25.5090675 -151.821442 
-79.6477661 -5.66784191 121.451294 
-20.1762218 -5.31156445 159.271423 
-26.8781109 -38.4793358 56.3455429 
-43.8641853 -76.0133133 -241.831055 
-47.1327171 -66.4923172 -55.9566612 
-65.6081238 41.3699379 85.7426071 
-84.6252747 -44.2004433 -202.720184 
-72.4800797 1.09617829 107.907776 
-49.0158386 -28.7160473 -112.874626 
-93.3658905 -15.2755861 118.70961 
-35.6713181 -37.0313568 84.9059601 
-33.0266838 -43.2272453 -216.318573 
-37.5627289 -91.8095245 -102.542809 
-69.7119064 -35.3988914 -134.056976 
-66.3324356 -56.5818901 80.3403091 
60.9065704 -40.4033508 -28.9615612 
49.9119644 -83.5691986 23.451355 
-70.6170654 -48.0115547 156.490387 
-46.0088768 -78.043663 -58.6887894 
-92.0114899 -10.4022255 147.45694 
15.5249233 -88.4312363 -224.125 
-24.3994846 -64.3721848 16.4727573 
-63.2088394 19.1559715 125.441566 
42.3236084 -58.9310455 8.9560833 
-14.447875 -48.50354 64.9018402 
-44.3788109 -29.6016216 26.6178932 
53.2440643 33.5102654 31.6304665 
-21.5672817 -58.4630051 -35.0323105 
-53.5564346 -32.7195702 102.379265 
-1.18887568 -68.0781555 -126.609558 
-90.9332809 -9.42737007 -139.988907 
-92.4382477 -38.43396 83.1559372 
-29.1025352 -84.842186 135.571167 
-81.3998871 -63.0270767 98.936203 
-64.3750839 -53.6907349 -28.1597176 
-28.861805 -44.1040688 12.6879425 
-42.8178024 -78.4171524 -107.049797 
-39.6279411 -78.1506805 2.03744507 
-88.5027771 -62.836647 134.522369 
16.8302517 -49.1615753 -81.6586914 
-52.0268097 -53.9410057 113.049767 
-82.9480133 -30.9056416 -39.1293182 
69.676712 -46.1159706 -25.5007496 
-41.9083519 -59.2554092 29.0478191 
84.8292465 -68.5371857 40.423233 
-128.95195 -68.439415 -37.0229607 
-31.7877903 -68.4659729 -145.788284 
-60.9759521 9.28239536 140.658035 
14.6902895 -28.5469742 -7.29277945 
-61.738205 -60.6942329 118.283478 
-23.1679478 -30.5604744 102.686684 
-62.0428314 -82.907486 -136.910156 
-36.3733368 -38.4989891 -74.1122284 
-21.7157288 -65.7666168 -71.7076492 
-7.39920807 -22.2665386 46.2203026 
-84.52771 -44.081089 -170.344467 
-44.8547287 18.8523178 128.156921 
69.0116119 33.5264397 21.4774609 
13.415226 -55.4786072 -101.993034 
-69.068634 -33.1903381 -123.09185 
41.100132 -40.6751633 -31.3648663 
-43.2420807 -92.4260559 -36.5211105 
89.2461472 26.7977695 -11.9221869 
-29.7580051 -65.6967926 53.8248253 
26.5349045 -53.5105247 -175.197769 
-7.9962306 -40.875515 -63.0351715 
-22.410183 -51.7589378 -143.693619 
-97.2174149 -82.2935028 -163.783264 
11.3391752 -13.508112 30.2478371 
-37.7149887 -42.4678116 59.150074 
1.29240823 -70.3610687 -25.0196991 
66.9314804 -32.2370529 -32.4090614 
-114.787003 -58.8859482 -9.40183163 
-71.0323715 14.9760551 -152.592361 
-32.3772545 26.4029655 -142.573456 
1.51981974 18.5643806 140.565475 
41.7798195 -72.3129578 -92.705719 
-96.2638931 56.1122894 57.1833191 
-37.8201218 -41.1850281 -226.493973 
-54.5073357 -92.9461365 94.4916153 
-84.4959869 -56.4072609 -137.406509 
63.0823631 -65.3310394 -36.4155045 
3.5235312 -44.5447769 -228.759048 
43.5533104 22.774065 6.91720676 
-80.7795715 16.9923553 141.154434 
-32.6319733 -65.5363159 72.154541 
-44.6657372 -48.9726944 -82.6979675 
62.4782677 -62.7841606 77.4629669 
-57.8428116 -63.5820236 -192.697937 
-43.4301987 -40.1188889 79.5909424 
51.3529091 -39.4519348 -39.810936 
-52.9086838 -20.642334 81.4159164 
-10.2067499 -52.2195549 0.908145785 
-37.5020638 -83.5571747 -179.004425 
81.9370956 -76.4922562 13.677825 
13.9107904 -75.1381149 -7.92494678 
-77.604126 -14.2230873 -132.910706 
-12.7495642 -41.7338829 -219.033173 
-37.5803375 -12.8974714 -219.4944 
-91.2631989 21.3476334 77.4054871 
-36.6873093 -42.0551834 -120.842506 
-64.7134705 -44.544281 82.5461273 
-15.1199417 -77.6589966 -270.255859 
-20.1970558 0.197807074 135.501358 
-33.0546913 -31.1149044 -190.238022 
-2.76142097 -55.9882507 114.263092 
79.7889328 -24.6804657 15.3751926 
-20.1409874 -31.5920887 146.33786 
31.4671707 -70.0511551 -120.589821 
-65.525528 -61.8651123 -150.763046 
-18.2028141 -48.6207161 56.1486359 
-37.4705009 -59.6423187 15.8732414 
-24.7414284 -71.5279312 40.0565071 
-38.8505096 -18.6425018 143.443954 
53.3820419 -10.9221401 -47.6686096 
-22.4394245 -67.8342285 133.19133 
-21.2640514 -91.9278412 47.7509308 
15.8538809 18.3997231 -21.0497208 
17.0361214 0.637526155 146.908768 
-98.6700516 10.1593285 64.6733017 
-45.4983101 -29.0508652 48.0149918 
-12.2065973 -60.9055748 -159.431061 
62.7749825 -30.8745651 3.85836792 
-109.78775 -9.38268852 88.8406906 
-96.3969574 37.5796356 49.1516647 
-17.7235336 -39.6795845 -102.359566 
-12.2688932 -17.5096226 -78.4876404 
18.1056175 27.0613327 3.02272582 
1.77132583 -7.30072355 22.0576992 
-27.8979492 -16.1842918 121.82605 
-91.553894 -25.323246 -177.217712 
-2.47977495 -73.2885208 50.5283585 
-39.1590004 -90.500885 -49.4475784 
-94.7285995 -28.107563 -164.632416 
3.08500385 11.8350649 148.803314 
-83.5708923 -5.36213017 80.3482208 
-11.3925304 -76.4140778 -124.559731 
-48.9271774 -51.5152664 -226.306732 
-31.4940548 -71.1675186 -45.3359718 
0.4149822 -77.8815613 -187.293533 
22.4426975 -44.1405144 -162.79007 
70.6741104 -41.4637909 -42.0559464 
-32.3128433 -67.9796066 29.0753136 
-117.632103 -66.4493027 -36.6510849 
-73.6293488 49.6229553 114.667549 
-42.0987816 24.0844212 156.838104 
-82.5669937 -46.0350838 -130.486816 
-55.5017357 -11.3699865 74.7643204 
-88.6862793 -21.188755 81.3495178 
-23.2614193 -50.9628944 -214.414154 
-49.1220856 -93.5813293 53.5132751 
-50.1842117 -78.5166473 20.3568439 
-66.1779327 -45.0913582 -49.1209412 
12.8231964 -48.6431808 -202.410965 
19.4534931 -1.3315556 126.59063 
-62.563942 57.3948708 119.563515 
85.3998947 -19.5702209 70.690979 
-64.8859711 -59.5290909 -180.358429 
-38.6906204 -36.5645981 72.315155 
-1.22486579 -48.7841415 -167.066757 
-83.7957306 -21.3475227 -181.571442 
12.4159164 -72.5191956 -41.9844894 
-41.7681999 -30.1430416 -44.1161613 
-66.8844528 -19.5133457 102.100266 
-76.4424744 -35.367485 -158.531631 
7.17729664 15.0329561 124.365135 
-61.6838875 -28.8285294 138.400635 
-44.4964066 -43.0023193 -209.140869 
-63.80439 -65.5469666 -204.640884 
-20.4726944 -18.1099663 94.2347412 
-72.9364929 -35.4723663 115.684128 
-32.6653175 4.97471523 23.9860783 
36.2932358 -27.9672718 -16.1338463 
-55.250351 -25.2935333 52.1471786 
24.1795216 12.5251427 -16.8731194 
-39.0833893 -24.2077045 -163.557785 
68.7727051 0.989391267 -11.5447779 
-45.9730606 -79.7137985 -208.113251 
-6.42207432 -91.8786621 -273.363251 
-45.7330551 -66.1977692 -8.56360149 
-41.1522217 12.9049273 -136.73967 
-47.8891792 -34.3987656 -189.581055 
-43.6392136 -78.8517838 149.335526 
22.9428158 -29.5132923 -72.7798538 
-96.6557083 -3.5036037 -126.2939 
-115.437592 42.7684212 43.9039116 
-98.5111771 -20.0433331 101.474251 
-74.1075668 -43.7723007 24.9421139 
-46.0347595 -85.9468994 -17.8434582 
-112.397484 -51.4165878 -153.682709 
-49.3422356 -25.785078 -85.9664993 
3.71414709 -49.3633957 32.7266884 
-53.8460159 -7.75903511 165.187042 
-12.1244955 -77.1285019 -235.889908 
-12.97509 -37.91856 62.422718 
-79.8859558 -5.10916519 47.9896431 
-21.2452278 -50.6390724 -163.933167 
19.3449421 -65.2497482 90.2592545 
-73.3393326 -70.5403976 84.6477814 
77.5628052 -21.627943 6.48314142 
50.095993 -29.0207405 -33.1619949 
15.4172974 -3.64924145 47.5373993 
-82.0303192 -39.3929138 -33.0076141 
-36.365448 2.89400935 -142.47522 
-98.9468994 -10.6989775 23.3863678 
-100.20359 -80.7332611 -152.070831 
-38.110527 16.0763741 -168.097198 
5.55717754 -73.2379227 -62.2720871 
82.7606735 -41.8801231 31.4538021 
-26.9465122 -19.4604168 -156.977158 
-39.5461617 -81.7851257 -113.76796 
91.1612244 14.500742 -15.9208755 
-67.5041809 -85.6788025 -156.617371 
-51.4344597 -47.2385941 31.2238216 
-89.6004562 -14.8216219 46.6568413 
-45.7915535 -57.5304146 -159.672195 
-47.8281746 -33.5565491 -155.123108 
-30.4524174 -54.39328 85.1811371 
-84.0633621 -11.1701164 -110.99897 
-33.5007591 -25.982357 -76.8722839 
-48.4891968 -0.961975098 110.016182 
-8.66934013 -34.7291183 39.8792191 
-22.0201874 -71.0454941 -36.2056503 
-4.02276039 -62.0535812 -49.7415237 
-91.6781082 21.4253197 47.6457062 
-23.6697807 -54.2469597 21.8943977 
-96.3434143 -90.052475 48.5490417 
-40.5441704 -74.3858566 176.758911 
6.11492825 -81.878624 -120.248276 
-35.6458511 -61.6486549 -54.3517227 
-78.5399017 32.0621033 139.494598 
6.13643122 -40.7487144 142.230453 
-70.7718964 -70.4751968 -176.150269 
-81.6447144 -76.2701721 -19.0733414 
-37.3393707 -65.1889954 -108.878769 
-75.245224 -61.261898 150.931396 
56.2246819 -43.254837 -71.123703 
104.502121 14.5833111 1.73879218 
-75.5117645 -91.724556 -153.462769 
-101.57547 -42.8214493 -115.950264 
-8.61135674 -56.6655006 -219.164276 
-79.3095245 1.66330063 -131.216446 
-91.5970383 -67.7749863 166.557281 
-31.8428631 3.36494803 -153.5439 
-79.0537415 44.8876419 57.2898445 
-77.4423447 37.1284904 132.380859 
-69.7448883 17.3884811 140.385452 
-39.3233604 -13.1807575 131.843201 
-12.3531151 -55.6572037 -132.494095 
-47.7458115 -47.2310638 -195.516235 
-42.8660507 -0.990272403 -154.143143 
-41.8006134 -9.15001869 75.5575256 
-6.59595203 -7.09152365 -213.343094 
-50.9537735 -5.54077673 98.836792 
-90.327446 -38.9251671 -123.267159 
-38.8790817 -66.2909622 -267.059021 
-69.6990509 -72.0763397 -114.175842 
-20.4062691 -21.2064171 -145.549988 
-61.9836235 -13.0040998 -157.963043 
83.4793167 16.2138214 35.9709129 
56.912674 -32.088089 42.9518356 
1.8536098 -20.5333443 27.6775932 
-24.2266693 -57.3685226 -241.684509 
-55.3525314 -56.4572487 -171.957932 
-41.4549675 12.919138 -150.773422 
-38.523777 -47.2988472 136.785065 
-49.2173042 -15.0080147 152.960526 
-75.8620605 -31.3090706 -112.525841 
-49.7211494 49.5201149 87.8763885 
-73.5610504 -45.9481659 118.244003 
-46.9282494 20.4409771 142.40918 
19.5634346 -40.0182343 -25.4962807 
47.3841286 -24.6617393 112.202393 
-28.832489 -80.6171112 -92.414505 
-90.1661072 10.5512228 69.9601898 
-20.3536243 -23.6435814 19.8887558 
-71.5031281 -74.5354767 -132.196274 
-67.5782547 -53.2681389 -143.21936 
-47.3423729 -63.3187981 141.209106 
14.7706127 -67.9234161 -89.2370834 
-70.2119904 -94.4618225 -189.720078 
67.688324 -39.3674774 -45.4517975 
-92.3609467 23.0435219 33.7212257 
-48.8059769 33.9698067 75.0232391 
-82.7148819 -70.9722137 -192.053848 
-77.800499 38.2240067 104.507256 
-70.4844894 -23.5994911 -130.883194 
-2.45112014 -62.1981735 87.353157 
-37.5701637 -58.5113449 -218.822998 
-15.0153027 -88.595665 -73.7046356 
67.2757034 -20.0375099 -45.6381721 
-24.1442757 -52.9794426 -59.5987129 
-96.5184631 -64.7891388 101.416443 
-30.4515228 16.7182312 -159.436874 
-36.5475998 -12.8295088 52.5962105 
41.642765 -55.1272659 -74.9140625 
-33.0428009 -5.22201872 33.2159576 
-16.6942463 -33.7936172 136.546585 
-37.6660995 -71.2473831 -158.810944 
-53.1094017 19.0447636 79.5503235 
30.4250126 -5.88854408 -7.80551577 
-62.8412476 -30.3131104 76.1061401 
-9.63949203 -49.7667313 27.9150009 
-100.597618 55.6352196 63.9190636 
-59.3588791 -89.4806137 -55.8921051 
-85.5574493 26.7560921 130.244415 
58.7701721 -36.9888916 -52.1566887 
-76.8670654 -60.1466103 -23.1091766 
-46.1379395 -27.8753891 -242.065414 
66.8927307 -29.7099743 29.2343788 
22.3166714 -39.4907684 17.7062225 
-14.0219994 -6.37509346 70.991127 
72.7194443 -20.391346 38.8489647 
-9.31039429 -85.6067886 38.796524 
-66.5851974 3.21583986 75.6673737 
-11.8802195 -20.8709641 75.7123413 
-111.119789 -12.8234358 -159.565765 
41.0633469 -12.3093281 -31.2154808 
-74.7766571 -67.758316 -212.895645 
-35.3689156 -8.53369522 -164.054382 
27.5870152 24.316803 27.8632832 
-59.0080338 -43.2790756 -162.907257 
38.4819298 -18.6026154 10.2814617 
-84.79039 -85.2786636 76.3098984 
-102.59417 48.0932693 99.4896698 
-44.4984283 -37.4885864 18.7596436 
9.91488838 -52.3609657 -38.1845398 
-38.6596031 -25.5150909 67.7229156 
-67.4886322 -13.4233027 131.330811 
-9.66246033 -17.506794 21.2552795 
-84.8690186 37.0214882 41.1601715 
-83.1207886 -53.3895035 -182.557785 
-39.4430389 39.2723541 111.121872 
-27.1070156 38.844986 125.47155 
6.22329569 -59.9574814 -2.26032829 
-80.4804611 -69.9142151 -63.6287842 
-3.19447374 -30.5506763 159.181122 
-86.1580963 7.41602516 91.6714554 
-103.937347 -66.2095718 -37.5037613 
-11.2841272 -58.0675812 -83.7021027 
74.8377075 -12.9320288 64.4056702 
-50.7759857 9.15523529 -168.531372 
-70.6478882 -43.378994 70.7559814 
-56.2370071 -21.9410362 97.8609924 
-55.7040596 -48.0745125 90.0284042 
-94.0293884 4.80152082 -134.11972 
-50.8558197 -58.6298141 54.4986572 
-53.8963661 30.884985 91.6371002 
56.3820496 10.0108786 49.3890343 
-98.2828064 -71.1057053 85.2404327 
-30.4668465 -0.074748382 129.870682 
1.59083986 -68.9251709 -96.9013443 
-43.5978775 -21.3877106 94.3265457 
-49.752182 -32.5014191 116.127487 
65.655014 -45.138237 29.1238747 
58.0283203 -53.5981064 -21.4851532 
-18.6594391 -41.2912292 -55.4644089 
-29.2095947 -73.4983292 12.2450399 
-42.0960617 -11.9221087 159.258163 
-87.4120789 -57.3068008 -62.3881989 
-18.8447514 -74.3354492 26.2900543 
-71.7583847 -34.8056183 149.487457 
-89.1911087 40.281353 72.2568359 
-2.48407698 9.91873932 107.345001 
-46.4247971 -11.1569147 -173.692719 
31.3057251 23.9280682 -22.5605907 
-40.8189201 -74.3893814 -133.038727 
-82.6684341 -58.2457695 -41.8762283 
-30.9878349 0.653084099 110.108147 
-80.0442581 -76.8306351 -162.368698 
-94.9223328 -73.6111984 -163.283813 
-29.1085911 -36.0888252 115.463417 
-87.2071075 -24.0490284 93.7831345 
-6.39736652 17.8585186 32.6871338 
-22.5042191 -15.54111 -225.72139 
-83.7799072 -34.4570313 123.376175 
-39.584034 -35.6604156 -162.838348 
53.5603409 8.99028301 -25.2086773 
-72.8516998 -74.4334946 -147.863846 
32.4717331 18.436203 10.5996866 
-37.450161 -40.0102997 124.391136 
-71.6942062 -57.8395996 102.39418 
-17.8058281 -54.966835 -70.5174179 
-33.4967995 -74.5384064 -99.0414581 
-72.5181885 -22.053627 91.4100876 
-67.8448868 -73.3375626 71.8402405 
-30.307579 -20.0653877 30.3846016 
-112.281006 46.7239952 51.714447 
-48.9964828 -17.2397919 -161.757233 
-80.1526794 61.8168983 112.527016 
-50.7224541 -56.0724297 -30.3429794 
-22.2670975 -42.661438 -273.245392 
-96.2149429 34.4886932 31.1821976 
-20.8824005 -43.9835472 -39.0381088 
-19.2444344 5.4591794 50.1021767 
-60.9497452 -43.2736702 -18.4072056 
30.1616478 -69.1944427 135.023239 
-39.0384827 -16.488884 -223.207092 
-25.0863934 10.843647 140.081787 
-42.0399475 -66.5770874 -182.147964 
-31.7831173 -20.6836605 -103.468086 
-44.9642639 -47.1609497 -73.9053497 
-107.808594 12.0551319 86.9388885 
-23.2963867 -18.3957214 -193.137085 
26.2455997 0.873274326 -20.7966805 
-31.4152431 -77.1584854 -60.389801 
-52.1280556 -62.3614311 92.7451401 
-59.17836 -55.9541016 -160.101837 
-92.9826889 -9.55600357 85.2619095 
55.5149841 -20.8109245 71.7026291 
-50.6135025 7.79335737 114.875458 
-60.9848099 -72.4745941 -50.846653 
75.066452 -7.60065556 1.28896105 
-19.3706703 -37.4926109 19.6950836 
-103.422821 -59.0811996 -131.976563 
14.8711996 -12.2362328 153.59613 
-30.0375767 -63.4949074 99.7040405 
-55.0285912 -5.731112 -154.888611 
-17.961998 -31.4978409 50.4311409 
-82.3067093 42.4469643 48.5209846 
-104.271164 -6.81416178 -131.140137 
-57.5561447 -23.714035 -123.307541 
-55.7304535 -37.7257805 -101.408356 
-14.3373852 10.4919205 41.8131371 
-7.84812832 8.27456093 30.0200996 
-25.3442268 -83.6938934 112.136322 
-37.4129028 -37.291111 -199.891617 
4.68158436 -58.3706551 -82.3160172 
-84.1196136 -54.3469696 155.979645 
-75.5752487 -54.6958084 -173.26326 
-122.308258 30.7953033 59.8525772 
-61.5328751 4.88371086 114.547668 
-72.668541 -4.5644412 131.090759 
4.55182791 -83.3837814 -84.7643204 
-19.4466381 -26.2558899 124.61499 
-77.6143188 -25.6790771 52.7361603 
-22.2625351 -43.8418083 -257.952576 
-4.81145144 -1.56428587 126.862801 
-26.0455799 -88.4978333 -225.891296 
107.249207 10.7208691 9.77178955 
-35.7944908 26.2557259 119.231346 
-104.248566 -8.36414909 46.9360962 
65.4690018 -32.7317238 63.5068359 
-11.6963301 -60.8813133 -22.8024883 
-18.0516605 24.4465065 144.22998 
29.9136581 -38.7723351 128.207657 
-26.472599 -58.4734001 -78.07621 
-94.0912018 -27.9490528 -136.945328 
-47.1866341 -44.9056473 -91.0083694 
-12.402092 -19.4679146 -126.314842 
-39.6447716 -6.49653721 -174.360107 
-90.6651688 -1.40833807 134.187851 
-45.5679779 -81.7013931 -125.375816 
-7.00895309 -17.7543716 130.78595 
-33.4643478 -79.2846527 -73.7954102 
43.286602 -31.6457214 -88.6181793 
-55.0629501 -53.3516159 -144.742844 
-44.2077942 -30.9539871 -51.1760788 
-9.85297298 -62.4034576 -6.44909239 
-67.5996246 11.4701328 -160.577377 
-34.8203659 -62.6669846 3.02338839 
-114.611801 -37.8455048 -152.34021 
-46.5467377 -52.2872963 131.529724 
