ply
format ascii 1.0
comment created by gply, a Houdini tool.
comment converted from .[b]geo
comment for more information about Houdini, try:
comment www.sidefx.com
element vertex 306
property float x
property float y
property float z
property float fbx_translation1
property float fbx_translation2
property float fbx_translation3
property float fbx_scale1
property float fbx_scale2
property float fbx_scale3
property float fbx_rotation1
property float fbx_rotation2
property float fbx_rotation3
property float nx
property float ny
property float nz
property float uv1
property float uv2
property float uv3
element face 0
property list uchar int vertex_indices
end_header
0.497736335 6.07766914 5.54819202 0 384.055481 277.819305 100.000008 100.000008 100.000008 -1.57079649 0 0 -0.936548591 -0.279281944 -0.0575359389 0.57538259 0.658273935 0 
-1.87668896 2.13516951 -4.98958445 0 384.055481 277.819305 100 100 100 -1.57079649 0 0 -0.49858129 0.148679554 0.77842164 0.189718738 0.60217768 0 
-1.33223987 4.08377314 -5.17393684 0 384.055481 277.819275 100 100 100 -1.57079649 0 0 -0.747314215 0.222851321 -0.543056905 0.359867215 0.620258093 0 
-0.803266943 5.88933277 5.50346899 0 384.05545 277.819305 100 100 100 -1.57079649 0 0 -0.805548012 0.24021709 -0.384919077 0.518111467 0.60861671 0 
-1.44444203 3.41740942 -4.96892452 0 384.05545 277.819305 100 100 100 -1.57079649 0 0 -0.137821972 0.0410986394 0.939155221 0.303460091 0.597798288 0 
1.1193465 4.88110304 -5.11388826 0 384.05545 277.819305 99.9999924 99.9999924 99.9999924 -1.57079637 0 0 0.914604664 0.272738516 -0.112464793 0.463994265 0.692230105 0 
1.63318098 3.04712224 5.65189743 0 384.055481 277.819305 100.000008 100.000008 100.000008 -1.57079649 0 0 0.692215502 0.206421122 0.684877157 0.303822517 0.685009658 0 
0.77341938 5.93538189 5.46456289 0 384.055481 277.819305 100 100 100 -1.57079649 0 0 0.69268918 0.206562191 -0.668489635 0.55728817 0.701957166 0 
-2.22925019 1.14923549 5.57919836 0 384.055481 277.819305 100 100 100 -1.57079649 0 0 -0.899181306 0.268138945 0.158550069 0.101774126 0.615468383 0 
-0.505344093 6.07925844 5.52868128 0 384.055481 277.819305 99.9999924 99.9999924 99.9999924 -1.57079637 0 0 0.884765208 -0.26383999 -0.194527999 0.540580034 0.581282496 0 
1.13716125 4.83886671 5.55330276 0 384.055481 277.819305 100 100 100 -1.57079649 0 0 0.949708164 0.283206135 -0.0221117791 0.460161716 0.69392848 0 
1.37449408 3.56005025 -4.96415663 0 384.055481 277.819275 100 100 100 -1.57079649 0 0 -0.056305211 -0.0167907886 0.975142717 0.351383388 0.711664915 0 
-0.126382336 7.85086584 4.7587204 0 384.055481 277.819305 100.000008 100.000008 100.000008 -1.57079637 0 0 -0.976677775 0.0870393515 -1.41805101e-08 0.0612117797 0.775414705 0 
-1.09877896 4.07147455 5.57131338 0 384.055481 277.819305 100 100 100 -1.57079637 0 0 0.916714311 -0.273367316 0.107034951 0.364487141 0.646684885 0 
2.05380774 1.24982834 -4.96813345 0 384.055481 277.819305 100 100 100 -1.57079649 0 0 -0.0915094614 -0.0272884332 0.947077155 0.148852736 0.712511003 0 
1.82058477 2.37693357 -4.99620819 0 384.05545 277.819275 99.9999924 99.9999924 99.9999924 -1.57079649 0 0 0.60717243 0.181062102 0.730660558 0.245301202 0.703475833 0 
-0.535352528 6.80549812 5.51623821 0 384.055481 277.819305 100 100 100 -1.57079649 0 0 -0.837611437 0.249778539 -0.296955407 0.598394036 0.609772265 0 
-0.288116574 7.68110752 -5.10868549 0 384.055481 277.819305 100 100 100 -1.57079649 0 0 0 1 -1.62920671e-07 0.87883234 0.0478024669 0 
0.765957415 5.7982378 -4.98196697 0 384.055481 277.819305 100 100 100 -1.57079649 0 0 0.34735167 0.103581741 0.845015287 0.546413183 0.706490099 0 
-2.13497424 1.14700878 5.43269539 0 384.055481 277.819305 100 100 100 -1.57079649 0 0 -0.265660256 0.0792206302 -0.88871932 0.103860617 0.598981977 0 
0.115141988 7.7863903 0.928041577 0 384.055481 277.819305 100 100 100 -1.57079649 0 0 0.889812946 -0.41122371 6.64568702e-08 0.298066199 0.747880399 0 
-0.0899134502 7.92645264 -2.90457344 0 384.055481 277.819305 100 100 100 -1.57079649 0 0 -0.694847524 0.671177804 -1.0934874e-07 0.535040438 0.770052791 0 
-1.50037766 3.00385189 5.67387533 0 384.055481 277.819305 100 100 100 -1.57079661 0 0 0.339415789 -0.101214819 0.850157082 0.26878202 0.634928882 0 
-1.11834037 4.8916893 -5.10869551 0 384.055481 277.819305 100.000008 100.000008 100.000008 -1.57079649 0 0 -0.929070055 0.277052969 -0.0752315372 0.430128098 0.614354312 0 
-0.0404005423 7.95817804 3.44254065 0 384.055481 277.819305 100 100 100 -1.57079649 0 0 -0.312213749 0.916342497 -1.49291139e-07 0.142592356 0.766296566 0 
-0.131610855 7.63198996 5.43419266 0 384.055481 277.819305 100 100 100 -1.57079649 0 0 0.314786226 -0.093870461 -0.86974597 0.674713254 0.592879951 0 
1.13153636 4.5534687 5.67495012 0 384.055481 277.819275 99.9999924 99.9999924 99.9999924 -1.57079637 0 0 0.321032375 0.0957330614 0.858272791 0.437293142 0.680314898 0 
-2.17396998 0.47425434 -5.11913729 0 384.055481 277.819305 100 100 100 -1.57079649 0 0 0.894261837 -0.266671658 -0.155975804 0.048696626 0.646141648 0 
-0.34327662 6.81540298 5.44738293 0 384.055481 277.819336 100 100 100 -1.57079649 0 0 0.514223933 -0.153343439 -0.767558575 0.603808761 0.590083718 0 
1.19451654 4.57417679 -5.15337563 0 384.055481 277.819336 100 100 100 -1.57079649 0 0 0.80459559 0.239932925 -0.395619452 0.437448859 0.688657343 0 
-0.00473754946 7.66595888 5.54807138 0 384.055511 277.819336 100 100 100 -1.57079637 0 0 7.85065524e-09 -0.99999994 1.62920671e-07 0.847884417 0.0813301653 0 
0.890052617 5.22548962 5.69196749 0 384.055481 277.819305 100 100 100 -1.57079649 0 0 0.0271609109 0.00809963513 0.986673951 0.497263461 0.676706016 0 
-0.187235951 7.68620729 -5.0330596 0 384.055481 277.819305 100 100 100 -1.57079649 0 0 0 -1 1.62920671e-07 0.831428885 0.169900745 0 
1.30825078 3.44139194 5.62340975 0 384.05545 277.819275 100 100 100 -1.57079649 0 0 -0.771579683 -0.230087578 0.48059991 0.343410552 0.665085971 0 
1.28498662 3.73393106 5.43793726 0 384.055481 277.819305 100 100 100 -1.57079649 0 0 -0.322978795 -0.0963134989 -0.85741359 0.367549688 0.714971185 0 
1.73878813 1.95557714 5.59314108 0 384.055481 277.819305 100 100 100 -1.57079661 0 0 -0.852967381 -0.254357725 0.266567737 0.213305429 0.662349999 0 
0.0580992736 7.95343494 -1.64720535 0 384.055481 277.819336 100 100 100 -1.57079649 0 0 0.448989034 0.879693687 -1.43025503e-07 0.457296103 0.759990156 0 
0.710057795 5.84584427 5.68989754 0 384.055481 277.819305 100 100 100 -1.57079649 0 0 0.0464097708 0.0138397077 0.971303821 0.551593423 0.677143633 0 
-1.90530598 1.3998704 -5.13690042 0 384.055481 277.819305 100 100 100 -1.57079637 0 0 0.844595194 -0.251861572 -0.283534765 0.129762709 0.644534171 0 
-0.974121571 5.31133842 5.61293793 0 384.055481 277.819305 100 100 100 -1.57079649 0 0 -0.79932034 0.238360062 0.406980604 0.467418551 0.618522227 0 
-1.27048242 4.01136017 -5.22617483 0 384.055481 277.819305 100 100 100 -1.57079649 0 0 -0.160189524 0.0477680005 -0.929280639 0.355514944 0.628734112 0 
2.03512669 1.59675217 -5.20770073 0 384.055481 277.819336 100 100 100 -1.57079649 0 0 0.493226707 0.147080585 -0.779392242 0.177262843 0.682242036 0 
1.03389299 4.27107382 -5.10018015 0 384.05545 277.819275 100 100 100 -1.57079649 0 0 -0.952793717 -0.284127176 -0.0141689982 0.416878343 0.659198105 0 
-1.3091774 4.14371157 -5.00994444 0 384.055511 277.819305 100 100 100 -1.57079661 0 0 -0.712416351 0.21244584 0.632880688 0.365252674 0.605418324 0 
0.110812262 7.90555429 -0.54387337 0 384.055481 277.819305 100 100 100 -1.57079649 0 0 0.856353045 0.509672225 -8.2707885e-08 0.389076084 0.755536556 0 
-1.22053885 4.21854973 -5.22127008 0 384.055481 277.819305 100 100 100 -1.57079661 0 0 -0.244046152 0.0727743879 -0.892260253 0.373415321 0.627694368 0 
2.238518 0.940907359 -5.20446301 0 384.055481 277.819305 100 100 100 -1.57079649 0 0 0.558312774 0.166489288 -0.746066213 0.119514257 0.682929456 0 
-0.650190055 6.41782188 -5.14020729 0 384.05545 277.819305 100.000008 100.000008 100.000008 -1.57079649 0 0 -0.834158599 0.248748869 -0.308497399 0.564387262 0.617205799 0 
1.12457168 4.48063803 5.42594242 0 384.055481 277.819305 99.9999924 99.9999924 99.9999924 -1.57079649 0 0 0.117903821 0.0351591706 -0.947948575 0.431590796 0.70950371 0 
-1.32461596 3.55014944 -5.21036768 0 384.055481 277.819305 100 100 100 -1.57079649 0 0 0.430440605 -0.128359795 -0.809972107 0.317039341 0.636057436 0 
-0.285990596 6.94203806 -5.19912148 0 384.05545 277.819305 99.9999924 99.9999924 99.9999924 -1.57079649 0 0 0.649461031 -0.193671718 -0.699998975 0.615392685 0.638440669 0 
-0.806886435 5.86604404 -5.15914822 0 384.055481 277.819305 100 100 100 -1.57079649 0 0 -0.782562494 0.233362794 -0.443116516 0.516147614 0.61891973 0 
1.76129019 2.59311104 5.65624094 0 384.055481 277.819305 100 100 100 -1.57079649 0 0 0.640907109 0.191120803 0.717056751 0.264149457 0.684284449 0 
-1.61043882 2.39832711 -5.14384413 0 384.05545 277.819305 100.000008 100.000008 100.000008 -1.57079649 0 0 0.83013612 -0.247550443 -0.328312993 0.21732986 0.643905938 0 
-0.137955472 7.68620729 -5.00226068 0 384.055481 277.819305 100 100 100 -1.57079649 0 0 0 -1 1.62920671e-07 0.828838468 0.174045637 0 
-1.83701527 1.72206628 -5.19680548 0 384.055481 277.819275 99.9999924 99.9999924 99.9999924 -1.57079637 0 0 0.651125073 -0.194168299 -0.718162775 0.157374471 0.638932407 0 
1.65046382 2.73014259 -4.96937037 0 384.055481 277.819305 100 100 100 -1.57079661 0 0 0.145445585 0.0433721542 0.935789645 0.277858675 0.709164619 0 
0.719358146 6.11692142 -5.18984699 0 384.055481 277.819305 100 100 100 -1.57079649 0 0 0.691043019 0.206070527 -0.669398129 0.573220313 0.685354292 0 
-2.04330587 1.11220193 -5.20692348 0 384.055481 277.819305 100 100 100 -1.57079649 0 0 0.464618623 -0.138551205 -0.796993375 0.103258476 0.636787415 0 
-0.059769962 7.55822802 5.53964281 0 384.055481 277.819305 100 100 100 -1.57079649 0 0 0.917250156 -0.273527086 -0.113719068 0.670494735 0.580291152 0 
1.45206535 2.88439965 5.54315805 0 384.05545 277.819305 100 100 100 -1.57079649 0 0 -0.921445131 -0.274778068 -0.0948582292 0.295059353 0.657825112 0 
-1.46129096 2.84846401 -5.08857203 0 384.055481 277.819305 100.000008 100.000008 100.000008 -1.57079637 0 0 0.931466043 -0.277767569 0.0690643936 0.257196963 0.579645634 0 
1.43148029 3.54559278 -4.97938871 0 384.055481 277.819305 100 100 100 -1.57079637 0 0 0.316729277 0.0944499969 0.86017251 0.348848403 0.707039714 0 
-1.96653092 1.15267384 -5.08965921 0 384.055481 277.819305 100 100 100 -1.57079661 0 0 0.932918727 -0.278199762 0.0628842935 0.108366013 0.579546392 0 
-0.396553218 6.45136118 -5.13115311 0 384.055481 277.819305 100 100 100 -1.57079649 0 0 0.872526288 -0.260190517 -0.229443654 0.573186755 0.645053267 0 
-0.361201823 7.28646469 5.65645313 0 384.055481 277.819305 100 100 100 -1.57079649 0 0 -0.607418537 0.181134358 0.744609654 0.641345739 0.62281847 0 
0.121483691 7.86914825 3.22723532 0 384.055481 277.819305 100 100 100 -1.57079649 0 0 0.938821316 0.22832191 -3.70484585e-08 0.155904859 0.753177524 0 
1.19313991 4.13570881 5.68641949 0 384.055511 277.819305 100.000008 100.000008 100.000008 -1.57079649 0 0 -0.124937303 -0.0372565687 0.94484365 0.402140439 0.674785972 0 
2.08314896 0.81733644 -5.14686966 0 384.055481 277.819275 99.9999924 99.9999924 99.9999924 -1.57079649 0 0 -0.811606288 -0.242023319 -0.360371411 0.11328838 0.663430154 0 
0.0257192086 7.962111 -0.214090347 0 384.055481 277.819305 100 100 100 -1.57079649 0 0 0.198756933 0.946743131 -1.54113536e-07 0.368685305 0.762062967 0 
-0.987279892 4.48262167 5.51464653 0 384.055481 277.819305 100 100 100 -1.57079649 0 0 0.842015862 -0.251092017 -0.299302965 0.400306255 0.582551897 0 
1.69411218 2.09694219 5.52571726 0 384.055481 277.819305 100.000008 100.000008 100.000008 -1.57079649 0 0 -0.870970845 -0.259726465 -0.221856385 0.225772887 0.656248629 0 
-1.57579172 3.24452162 5.6483345 0 384.055511 277.819305 100.000008 100.000008 100.000008 -1.57079637 0 0 -0.702141464 0.209381044 0.659328341 0.286367804 0.62172544 0 
-0.640728951 5.72070074 5.6528039 0 384.055481 277.819275 100 100 100 -1.57079649 0 0 0.697656512 -0.208043411 0.682352304 0.508426368 0.6393103 0 
-0.333710432 7.66595745 -5.06849766 0 384.055511 277.819305 100.000008 100.000008 100.000008 -1.57079649 0 0 3.24097504e-09 -0.99999994 1.62920671e-07 0.875553727 0.0795309395 0 
-0.515916765 6.82313442 5.63075924 0 384.055481 277.819305 100 100 100 -1.57079649 0 0 -0.734556198 0.219047219 0.550280988 0.600282669 0.62013483 0 
1.0071404 5.0234499 5.44434834 0 384.055481 277.819305 100 100 100 -1.57079649 0 0 0.432598293 0.129002154 -0.809019566 0.478164673 0.705601037 0 
1.21893251 4.52827692 5.58565903 0 384.055481 277.819336 100.000008 100.000008 100.000008 -1.57079661 0 0 0.876749039 0.261449546 0.209902599 0.433162332 0.691001117 0 
-0.569553852 5.93580532 -5.01875734 0 384.055481 277.819275 100 100 100 -1.57079649 0 0 0.745873034 -0.22242251 0.559597015 0.527474523 0.585964441 0 
0.101184234 7.91518164 -3.20777106 0 384.055481 277.819305 100 100 100 -1.57079649 0 0 0.781947911 0.584077358 -9.48299999e-08 0.55378741 0.756377697 0 
2.07918978 1.04234016 -5.21315813 0 384.05545 277.819305 100 100 100 -1.57079649 0 0 -0.353321135 -0.105362102 -0.841351092 0.131518781 0.671595395 0 
-2.1389854 1.04814649 5.42214537 0 384.055481 277.819336 100 100 100 -1.57079649 0 0 -0.093224518 0.0277996939 -0.973361135 0.0957954898 0.596745491 0 
-0.251582652 7.62065744 -4.99401093 0 384.055481 277.819305 100.000008 100.000008 100.000008 -1.57079661 0 0 -0.528448164 0.157586172 0.776143014 0.670916498 0.603117287 0 
0.235528827 7.60899162 5.44410229 0 384.055481 277.819305 99.9999924 99.9999924 99.9999924 -1.57079649 0 0 0.382827997 0.114160493 -0.830048621 0.705118001 0.705649376 0 
-0.117026433 7.68110752 -5.14110994 0 384.055481 277.819305 100 100 100 -1.57079649 0 0 0 1 -1.62920657e-07 0.864442229 0.0450753085 0 
2.38619447 0.522265196 -5.19348907 0 384.055481 277.819305 100 100 100 -1.57079661 0 0 0.719538033 0.21456711 -0.653013945 0.0822229907 0.685034275 0 
-2.22488761 0.88988632 -5.21641111 0 384.055481 277.819275 100 100 100 -1.57079649 0 0 -0.36199683 0.107947432 -0.842627168 0.0809744149 0.626663923 0 
-1.40834904 3.6553936 -5.21303749 0 384.055481 277.819305 100.000008 100.000008 100.000008 -1.57079661 0 0 -0.384798288 0.114747167 -0.830122113 0.323509663 0.625949264 0 
-1.33016312 3.88667297 5.67503881 0 384.055481 277.819305 100 100 100 -1.57079649 0 0 -0.31951648 0.0952810124 0.858942032 0.344030321 0.626758635 0 
-0.694848657 5.46155739 -5.05769253 0 384.055481 277.819305 100 100 100 -1.57079649 0 0 0.847347498 -0.252682805 0.288331419 0.486238658 0.582441151 0 
-0.128954872 7.84126425 -3.1288631 0 384.05545 277.819305 100 100 100 -1.57079637 0 0 -0.996558189 0.0128444172 -2.09262119e-09 0.548908651 0.776023269 0 
-1.26437545 4.3425293 5.50309849 0 384.055481 277.819305 100 100 100 -1.57079649 0 0 -0.809843779 0.241498083 -0.382111281 0.382354498 0.608582914 0 
1.05506909 4.54361963 5.43315935 0 384.055511 277.819305 100 100 100 -1.57079649 0 0 -0.241294041 -0.0719548464 -0.893475294 0.438337862 0.71395725 0 
1.33062863 4.05860472 -5.19542599 0 384.055481 277.819305 100 100 100 -1.57079649 0 0 0.685905576 0.204538494 -0.697191477 0.392621458 0.684839964 0 
0.732183635 5.60344172 -4.97781134 0 384.055481 277.819305 100 100 100 -1.57079649 0 0 -0.300234705 -0.0895312354 0.868697703 0.531523526 0.714556754 0 
-0.115645282 7.78826809 -0.331929624 0 384.055481 277.819305 99.9999924 99.9999924 99.9999924 -1.57079661 0 0 -0.893702209 -0.396708637 6.411112e-08 0.375971407 0.729726017 0 
0.0656968802 7.56451416 -5.06262541 0 384.055481 277.819305 100 100 100 -1.57079649 0 0 -0.87110281 -0.259765625 0.241613448 0.70561409 0.655792415 0 
2.40477872 0.468153238 -5.00882673 0 384.05545 277.819305 99.9999924 99.9999924 99.9999924 -1.57079649 0 0 0.735007584 0.2191834 0.611763597 0.0774153247 0.701743543 0 
1.43019366 3.04588556 5.63306999 0 384.055511 277.819336 100.000008 100.000008 100.000008 -1.57079649 0 0 -0.744666219 -0.222061887 0.549872994 0.30860132 0.665960908 0 
-2.2392118 0.285395086 -5.14067984 0 384.055481 277.819305 100 100 100 -1.57079649 0 0 0.827316821 -0.246708348 -0.317559928 0.0319056399 0.6441921 0 
-0.0647001043 7.72753763 -4.0498786 0 384.055481 277.819305 100 100 100 -1.57079649 0 0 -0.5 -0.866025388 1.39370016e-07 0.605855763 0.734723926 0 
1.71001577 2.14415383 -5.00006962 0 384.055481 277.819305 100 100 100 -1.57079649 0 0 -0.664789736 -0.19824326 0.709430575 0.229197115 0.719279766 0 
1.56775117 2.59024906 -5.01745033 0 384.055481 277.819305 100 100 100 -1.57079637 0 0 -0.733327568 -0.218681559 0.579056919 0.268569916 0.651715517 0 
0.336703271 7.1275835 -5.22804403 0 384.05545 277.819305 100 100 100 -1.57079649 0 0 0.078408286 0.0233810097 -0.946526289 0.663881958 0.677919567 0 
0.11206387 7.77490234 0.836578131 0 384.055481 277.819336 100 100 100 -1.57079649 0 0 0.866025448 -0.5 8.0803801e-08 0.303721458 0.747145176 0 
-2.13990569 0.87159276 5.67540026 0 384.055481 277.819305 100 100 100 -1.57079649 0 0 0.278092623 -0.0829280391 0.870732903 0.081542328 0.634605348 0 
2.23062778 0.601269484 5.43318605 0 384.055481 277.819336 100 100 100 -1.57079649 0 0 -0.197820067 -0.0589907616 -0.900911808 0.0923298448 0.7139678 0 
1.33891833 3.25593567 -5.10575104 0 384.055511 277.819336 100 100 100 -1.57079661 0 0 -0.937272131 -0.279498458 -0.0541205183 0.32772541 0.659704387 0 
-1.58261144 2.87419915 -5.23373985 0 384.055511 277.819305 100 100 100 -1.57079649 0 0 0.0308507532 -0.00920080673 -0.986380219 0.256355345 0.63110292 0 
0.732374251 5.58069324 5.43872452 0 384.055481 277.819305 100 100 100 -1.57079649 0 0 -0.345989496 -0.103175364 -0.847800732 0.529685199 0.715135694 0 
-0.703083217 5.49018621 -5.17920637 0 384.055481 277.819336 100 100 100 -1.57079649 0 0 0.736771941 -0.219708502 -0.576152682 0.488348305 0.640705347 0 
-2.44289041 0.268514514 5.45172739 0 384.055481 277.819305 100 100 100 -1.57079649 0 0 -0.595481813 0.17757456 -0.724719048 0.0256492831 0.603016078 0 
0.366566837 7.70031834 -5.06539583 0 384.055481 277.819305 100 100 100 -1.57079649 0 0 0 1 -1.62920671e-07 0.0758464634 0.226008311 0 
-0.0691057593 7.56818581 -5.05175209 0 384.055481 277.819305 100 100 100 -1.57079649 0 0 0.844478607 -0.251825809 0.315425664 0.671073079 0.582979321 0 
-0.896413088 5.61985731 5.57843161 0 384.055481 277.819305 100 100 100 -1.57079637 0 0 -0.895437717 0.26702258 0.159562021 0.494152933 0.615399778 0 
1.33397937 4.15620232 5.57577753 0 384.055481 277.819305 100 100 100 -1.57079649 0 0 0.904277682 0.269658685 0.139045969 0.400407434 0.691895843 0 
0.306468785 7.32010984 -5.21678686 0 384.055481 277.819305 100 100 100 -1.57079649 0 0 0.27529034 0.0820917413 -0.870518744 0.680127263 0.680305779 0 
2.16912794 1.01718962 -4.97262383 0 384.055481 277.819305 99.9999924 99.9999924 99.9999924 -1.57079649 0 0 0.237368628 0.0707848147 0.90323621 0.127330691 0.708476961 0 
0.622070551 6.51036406 5.59965324 0 384.055481 277.819305 100 100 100 -1.57079649 0 0 0.829899907 0.247479022 0.318318844 0.607272029 0.68973124 0 
-1.01354074 4.42484808 -5.16175127 0 384.055481 277.819305 99.9999924 99.9999924 99.9999924 -1.57079649 0 0 0.781261206 -0.232975617 -0.455679655 0.395018637 0.642285109 0 
0.384615362 7.2759881 -5.16354465 0 384.055481 277.819336 100 100 100 -1.57079649 0 0 0.757872939 0.225999281 -0.487403184 0.67469269 0.687732458 0 
-1.84899068 1.55335093 -5.11143827 0 384.05545 277.819275 100 100 100 -1.57079649 0 0 0.919675827 -0.274250984 -0.0966997743 0.143487453 0.646838307 0 
1.1573168 4.42809534 -5.22157431 0 384.05545 277.819336 100 100 100 -1.57079649 0 0 0.238841772 0.0712226406 -0.894557834 0.426568419 0.679296017 0 
0.670436025 6.0777359 5.43510628 0 384.055481 277.819305 100 100 100 -1.57079649 0 0 0.253818542 0.0756894201 -0.883151293 0.571237981 0.707558751 0 
0.748993993 6.11258125 -5.1214242 0 384.055481 277.819305 100 100 100 -1.57079649 0 0 0.890595913 0.265578419 -0.169595495 0.572158277 0.691546142 0 
-0.0909593329 7.92540741 2.50589275 0 384.055481 277.819305 100 100 100 -1.57079649 0 0 -0.702930033 0.663095236 -1.08031934e-07 0.200506195 0.770147443 0 
0.366566837 7.68110752 -5.15912485 0 384.055481 277.819305 100 100 100 -1.57079649 0 0 0 1 -1.62920671e-07 0.823768079 0.04356011 0 
0.545400321 5.98854494 5.61548853 0 384.055481 277.819305 100 100 100 -1.57079649 0 0 -0.800697803 -0.238770694 0.415812552 0.567053199 0.66436398 0 
-1.23498511 3.97329497 -4.97089911 0 384.055481 277.819305 100 100 100 -1.57079649 0 0 0.171582878 -0.0511672013 0.924250782 0.353299975 0.593962252 0 
-0.708791494 5.53110743 -4.99643517 0 384.055481 277.819275 99.9999924 99.9999924 99.9999924 -1.57079649 0 0 0.614356339 -0.183203965 0.725943446 0.491509229 0.588549674 0 
0.518791318 6.59183693 5.43579435 0 384.055511 277.819305 100 100 100 -1.57079649 0 0 0.254850328 0.0759970993 -0.880650222 0.616321921 0.707412064 0 
0.500307024 6.89334631 -5.03669405 0 384.055481 277.819305 100 100 100 -1.57079649 0 0 0.772691011 0.230419219 0.455682993 0.641069293 0.699212432 0 
-0.126192614 7.827631 -3.57192087 0 384.055511 277.819305 100 100 100 -1.57079649 0 0 -0.975211561 -0.0925119966 1.49506398e-08 0.576303184 0.727208734 0 
-1.69895875 2.87671614 5.49699783 0 384.055511 277.819305 100.000008 100.000008 100.000008 -1.57079649 0 0 -0.792847812 0.236429811 -0.425857782 0.25376156 0.608030617 0 
-0.548171222 5.96398687 5.50827456 0 384.05545 277.819305 100 100 100 -1.57079649 0 0 0.829843104 -0.247462064 -0.33867231 0.530259788 0.583129048 0 
1.69410408 2.30449939 5.44503832 0 384.055481 277.819305 100 100 100 -1.57079649 0 0 -0.439656198 -0.131107077 -0.805930257 0.242503002 0.716478407 0 
1.96108198 1.7610786 -5.21807337 0 384.055481 277.819305 100 100 100 -1.57079649 0 0 0.315948039 0.0942155719 -0.862368226 0.192286938 0.680042922 0 
-1.1330322 3.9875102 5.5192132 0 384.055481 277.819275 99.9999924 99.9999924 99.9999924 -1.57079649 0 0 0.854738116 -0.254885852 -0.26655668 0.356896043 0.582138419 0 
1.94192719 1.92262805 -4.99035406 0 384.055481 277.819336 100 100 100 -1.57079661 0 0 0.51525414 0.153651595 0.770089805 0.205768406 0.704717398 0 
-2.51985526 0.153368697 5.59456682 0 384.055511 277.819305 100 100 100 -1.57079661 0 0 -0.864559829 0.257814765 0.259466499 0.0145181492 0.616858661 0 
1.77927864 2.35414314 -4.97628355 0 384.055481 277.819305 100 100 100 -1.57079649 0 0 0.268378079 0.0800314844 0.882230997 0.24445717 0.707699537 0 
0.11206387 7.77490187 -2.66168523 0 384.055481 277.819305 100 100 100 -1.57079649 0 0 0.866025329 -0.5 8.08037939e-08 0.520022392 0.747145355 0 
1.78606677 1.78642571 -5.06908369 0 384.055481 277.819305 100 100 100 -1.57079649 0 0 -0.87420404 -0.260690868 0.211856097 0.198535711 0.656389475 0 
1.79501581 2.49207616 -5.19656754 0 384.055481 277.819305 100 100 100 -1.57079649 0 0 0.66743058 0.199028939 -0.704694271 0.255195677 0.684600532 0 
-1.57424462 2.75666595 5.43883419 0 384.055481 277.819305 100 100 100 -1.57079649 0 0 0.338316113 -0.100887164 -0.850642443 0.247082859 0.591894448 0 
1.98310697 1.54475296 -4.96098995 0 384.055481 277.819305 100 100 100 -1.57079661 0 0 0.0260023996 0.00775395101 0.998007178 0.174322516 0.71099633 0 
-1.90701449 1.41869247 -5.04183102 0 384.055481 277.819305 100 100 100 -1.57079649 0 0 0.792799115 -0.236415818 0.412898719 0.131238759 0.583874524 0 
-2.22962785 0.944817781 -4.98874426 0 384.055481 277.819305 100 100 100 -1.57079649 0 0 -0.505390108 0.150710166 0.772070408 0.0852882341 0.601999044 0 
-1.58723354 2.64422417 5.44734287 0 384.055481 277.819275 100 100 100 -1.57079637 0 0 0.483787715 -0.144267246 -0.786420703 0.23770763 0.590090752 0 
-0.0857469812 7.93061972 0.332279503 0 384.055481 277.819305 100 100 100 -1.57079649 0 0 -0.662649155 0.703376174 -1.14594528e-07 0.334902763 0.769690394 0 
-1.94884181 1.42241359 5.66429615 0 384.055481 277.819305 100 100 100 -1.57079661 0 0 0.484095842 -0.144358933 0.78842175 0.130533218 0.636959374 0 
-2.37864256 0.074211292 -4.9787941 0 384.055481 277.819305 100 100 100 -1.57079649 0 0 0.254391164 -0.0758600086 0.877637267 0.0115319807 0.592286825 0 
0.368345916 7.22345352 5.66127682 0 384.055481 277.819305 100.000008 100.000008 100.000008 -1.57079649 0 0 0.522044957 0.155675679 0.776718795 0.670848906 0.683208466 0 
1.08873975 4.89468431 -5.17800188 0 384.055481 277.819305 100.000008 100.000008 100.000008 -1.57079649 0 0 0.735990167 0.219474256 -0.572204351 0.465824485 0.686428368 0 
0.121027261 7.87085152 3.95200038 0 384.055481 277.819275 100 100 100 -1.57079649 0 0 0.935294032 0.241485775 -3.91844779e-08 0.111091964 0.7532866 0 
-0.16767399 7.70031834 -5.22613192 0 384.055481 277.819305 100 100 100 -1.57079649 0 0 0 1 -1.62920685e-07 0.0623272285 0.181074232 0 
1.94865179 1.86431623 -5.2104702 0 384.055481 277.819305 100 100 100 -1.57079649 0 0 0.441834033 0.131755203 -0.803853393 0.200906515 0.681654453 0 
-0.0906181335 7.92574835 0.279388964 0 384.05545 277.819305 99.9999924 99.9999924 99.9999924 -1.57079649 0 0 -0.700293243 0.665732026 -1.08461521e-07 0.338173032 0.770116329 0 
-0.128315523 7.8355546 4.49067545 0 384.055481 277.819305 100 100 100 -1.57079649 0 0 -0.991617322 -0.0312849395 5.05588371e-09 0.0777852461 0.726696551 0 
0.239140436 7.01480055 -5.15675974 0 384.055481 277.819305 100 100 100 -1.57079649 0 0 -0.810383916 -0.241659164 -0.40264231 0.657135844 0.664312422 0 
-1.03589129 4.77434015 -5.22910261 0 384.055481 277.819305 100 100 100 -1.57079649 0 0 -0.110135578 0.032841675 -0.951378047 0.422651172 0.629354596 0 
0.37657541 7.3374548 5.59688616 0 384.055481 277.819305 100.000008 100.000008 100.000008 -1.57079649 0 0 0.833742797 0.24862501 0.302443504 0.679840267 0.689980268 0 
0.116820693 7.8865509 4.02154636 0 384.055481 277.819275 100 100 100 -1.57079649 0 0 0.902785838 0.362807989 -5.88707252e-08 0.106791869 0.754291594 0 
0.997762978 4.39819574 -5.10447311 0 384.055481 277.819305 99.9999924 99.9999924 99.9999924 -1.57079637 0 0 -0.940833628 -0.280560672 -0.0449530631 0.42799297 0.659586251 0 
-0.16000995 7.28441381 5.49476814 0 384.055481 277.819305 100 100 100 -1.57079649 0 0 0.8049227 -0.240030706 -0.421123117 0.646016002 0.584351599 0 
-1.92966521 2.09067202 -5.02989674 0 384.055481 277.819336 100.000008 100.000008 100.000008 -1.57079661 0 0 -0.772469819 0.230354473 0.484744757 0.184858739 0.607223392 0 
1.13034356 4.64500427 -4.99045324 0 384.055481 277.819336 100 100 100 -1.57079649 0 0 0.505895138 0.150859922 0.776661038 0.44470036 0.704692721 0 
-0.551699638 6.28090143 5.68569994 0 384.055481 277.819305 100 100 100 -1.57079649 0 0 0.166003913 -0.0495027788 0.934931159 0.555718482 0.632421374 0 
2.04995775 0.959112287 -5.02759933 0 384.055481 277.819305 100 100 100 -1.57079649 0 0 -0.746786594 -0.222694546 0.52147758 0.125512823 0.652637541 0 
-0.115747094 7.89055681 -0.135396346 0 384.055481 277.819305 100 100 100 -1.57079649 0 0 -0.894488931 0.393772662 -6.41537099e-08 0.363819659 0.772870779 0 
1.39761543 3.10912776 -5.05463982 0 384.055481 277.819275 100.000008 100.000008 100.000008 -1.57079649 0 0 -0.836934149 -0.249577403 0.312382042 0.314481556 0.655079663 0 
1.19536173 4.34412336 5.43840218 0 384.055481 277.819305 100 100 100 -1.57079649 0 0 0.330931962 0.098684907 -0.853902459 0.418886065 0.706862509 0 
2.18851924 1.20005894 -5.01364899 0 384.055481 277.819305 100 100 100 -1.57079649 0 0 0.738580823 0.220248774 0.588359654 0.141603589 0.701306224 0 
1.2218852 3.68031287 5.58690977 0 384.055481 277.819305 100 100 100 -1.57079649 0 0 -0.873263717 -0.26041013 0.218873546 0.36474365 0.661782622 0 
2.3007741 0.694136858 -5.20915651 0 384.055481 277.819305 100 100 100 -1.57079637 0 0 0.485266864 0.144706696 -0.781625867 0.0981285945 0.681934953 0 
-2.18660927 1.08551395 5.66628647 0 384.055481 277.819305 100 100 100 -1.57079649 0 0 -0.495607644 0.147791997 0.777136087 0.0976627469 0.624902725 0 
1.21297038 3.76419902 5.48699379 0 384.055481 277.819305 100 100 100 -1.57079649 0 0 -0.76497668 -0.228118718 -0.497595489 0.371719062 0.652740955 0 
-0.891331851 5.3469944 5.67642927 0 384.055481 277.819305 100.000008 100.000008 100.000008 -1.57079649 0 0 -0.290868968 0.0867382288 0.870587707 0.47228229 0.62705338 0 
1.23285007 4.24605274 5.44181681 0 384.055481 277.819305 100 100 100 -1.57079649 0 0 0.389308959 0.116093129 -0.828130603 0.410080403 0.70613879 0 
-2.14076805 1.19253206 -4.98253489 0 384.055481 277.819336 100 100 100 -1.57079649 0 0 -0.39788115 0.118650287 0.824581087 0.107390851 0.600682855 0 
0.607387006 6.579391 -5.12722492 0 384.055481 277.819305 100 100 100 -1.57079649 0 0 0.871916175 0.260007799 -0.213775188 0.613189101 0.69102037 0 
1.02115417 5.16409397 5.60539627 0 384.055481 277.819305 100 100 100 -1.57079649 0 0 0.821462631 0.244962931 0.351740956 0.489163786 0.689213991 0 
-0.758305371 5.59327555 5.68634319 0 384.05545 277.819305 100 100 100 -1.57079649 0 0 0.138113558 -0.0411857776 0.942543268 0.495329857 0.632285178 0 
1.0136553 4.36368513 5.57617664 0 384.05545 277.819305 100 100 100 -1.57079637 0 0 -0.903165519 -0.269326955 0.141908631 0.424829245 0.660809875 0 
0.466177344 6.64228439 -4.96205044 0 384.055481 277.819336 100 100 100 -1.57079649 0 0 -0.0210840032 -0.00628690096 0.990063846 0.62165308 0.710711002 0 
-0.638930738 6.47304153 5.5269537 0 384.055481 277.819305 100.000008 100.000008 100.000008 -1.57079637 0 0 -0.87109828 0.259764463 -0.216390491 0.569108427 0.610741794 0 
-1.31987774 3.52688646 -4.99087572 0 384.055481 277.819305 100 100 100 -1.57079649 0 0 0.513123393 -0.153016046 0.773469865 0.315278113 0.589727402 0 
1.0235858 4.87502098 5.43282652 0 384.055481 277.819305 100.000008 100.000008 100.000008 -1.57079649 0 0 0.235607147 0.0702587143 -0.895985782 0.465805858 0.708043694 0 
1.53016925 2.65534735 -5.13509178 0 384.055481 277.819305 100 100 100 -1.57079649 0 0 -0.855530977 -0.255122751 -0.264515549 0.27472046 0.662360728 0 
1.11437809 4.88044834 5.58453798 0 384.055481 277.819305 100.000008 100.000008 100.000008 -1.57079637 0 0 0.879871905 0.262380779 0.201864406 0.464060783 0.691101909 0 
-1.27358127 3.84052944 -4.97131109 0 384.055481 277.819305 100 100 100 -1.57079649 0 0 0.17862916 -0.0532684773 0.921140075 0.341671139 0.593874812 0 
-0.314737588 7.46657324 -5.00137091 0 384.055481 277.819275 99.9999924 99.9999924 99.9999924 -1.57079649 0 0 -0.658863842 0.196476638 0.724792242 0.656979382 0.604643285 0 
0.533971012 6.76839685 5.4861927 0 384.055481 277.819305 99.9999924 99.9999924 99.9999924 -1.57079649 0 0 0.747631431 0.222946152 -0.518841445 0.630188525 0.699998498 0 
2.147259 0.629322171 -5.16628885 0 384.055481 277.819305 100 100 100 -1.57079649 0 0 -0.751402855 -0.224070534 -0.505880952 0.0965938866 0.665187657 0 
0.124514922 7.85783577 3.27351737 0 384.055481 277.819305 100 100 100 -1.57079649 0 0 0.962246537 0.14089781 -2.28626647e-08 0.153043181 0.752453446 0 
-0.359220088 7.38246489 5.50639057 0 384.055481 277.819336 100 100 100 -1.57079649 0 0 -0.80424726 0.239829227 -0.37365213 0.64913106 0.608881354 0 
2.10081625 0.786414087 -5.02914619 0 384.055481 277.819305 100 100 100 -1.57079649 0 0 -0.749865472 -0.223612592 0.511647642 0.110371217 0.65277791 0 
1.47357774 2.90819263 5.63867998 0 384.055481 277.819305 100 100 100 -1.57079649 0 0 -0.72903806 -0.217401505 0.590098619 0.29646033 0.666468799 0 
0.56523937 5.94672203 -5.17509413 0 384.055481 277.819305 100 100 100 -1.57079649 0 0 -0.752824843 -0.224495083 -0.541456699 0.563205361 0.665973783 0 
2.50563955 0.0471193977 -5.20421791 0 384.055481 277.819336 100 100 100 -1.57079661 0 0 0.577064157 0.172080815 -0.733382523 0.0410560593 0.682982922 0 
-0.0861891359 7.74902821 2.4475286 0 384.055481 277.819305 99.9999924 99.9999924 99.9999924 -1.57079649 0 0 -0.666066289 -0.699959159 1.12798432e-07 0.204114929 0.732842386 0 
-1.40171981 3.69690156 -4.98575115 0 384.055481 277.819305 100 100 100 -1.57079649 0 0 -0.425507993 0.12688835 0.812149644 0.327014565 0.601365447 0 
-1.15998554 4.07498217 -5.20700312 0 384.055481 277.819305 100 100 100 -1.57079637 0 0 0.487970412 -0.145515338 -0.784574211 0.363298893 0.636770666 0 
-2.19271564 0.486637861 -5.1733079 0 384.055481 277.819305 100 100 100 -1.57079649 0 0 0.728675365 -0.217293352 -0.559468329 0.0492442138 0.641239405 0 
-1.98003161 1.90822875 -5.17626095 0 384.055511 277.819305 100 100 100 -1.57079649 0 0 -0.747893751 0.223023325 -0.551731288 0.168942466 0.620468199 0 
0.712168515 5.95369768 -5.21751928 0 384.055481 277.819305 100 100 100 -1.57079649 0 0 0.290708363 0.0866894946 -0.868327677 0.560236394 0.680153012 0 
-1.0241344 4.9846487 -5.20799541 0 384.055481 277.819305 100 100 100 -1.57079649 0 0 -0.47100991 0.14045608 -0.792061985 0.43988511 0.624880195 0 
1.4218924 3.54516292 5.6792264 0 384.055481 277.819305 100 100 100 -1.57079649 0 0 0.24791798 0.073930122 0.890550852 0.349043548 0.67941016 0 
-1.91191077 1.52002025 -4.99353504 0 384.055481 277.819336 100 100 100 -1.57079649 0 0 0.542388022 -0.161742434 0.764247417 0.139288515 0.589162648 0 
-0.114278667 7.8960371 -0.521889031 0 384.055481 277.819305 100 100 100 -1.57079649 0 0 -0.883141041 0.436123908 -7.10536057e-08 0.38771683 0.772519767 0 
1.6667037 3.03502798 -5.07491875 0 384.055481 277.819305 100.000008 100.000008 100.000008 -1.57079649 0 0 0.893429339 0.266424447 0.166967973 0.302042454 0.695759356 0 
-0.577604115 6.63032532 5.49213076 0 384.055481 277.819305 100 100 100 -1.57079649 0 0 -0.766610384 0.228605762 -0.473761648 0.583259463 0.607590914 0 
-0.00936299842 7.96649361 -2.91532564 0 384.055481 277.819305 100 100 100 -1.57079649 0 0 -0.0723570734 0.98061204 -1.59761967e-07 0.535705268 0.764307141 0 
-0.160336256 7.3506875 -4.99885845 0 384.055481 277.819305 100 100 100 -1.57079661 0 0 0.681068838 -0.203096658 0.681298614 0.651349962 0.588036537 0 
-0.260273933 7.62061453 -5.19880342 0 384.05545 277.819275 100 100 100 -1.57079649 0 0 -0.59324348 0.176906735 -0.752152562 0.670704186 0.622930944 0 
0.11206387 7.77490187 -1.96136451 0 384.055481 277.819305 100 100 100 -1.57079649 0 0 0.866025329 -0.5 8.08037939e-08 0.476720929 0.747145295 0 
-0.815701425 5.01398706 -5.10826206 0 384.055481 277.819305 100 100 100 -1.57079637 0 0 0.930277467 -0.277412921 -0.0721237138 0.447259635 0.647125244 0 
-0.699384034 6.06560755 5.66717386 0 384.055481 277.819305 100 100 100 -1.57079649 0 0 -0.437159181 0.130362451 0.807374775 0.534816146 0.625091195 0 
0.204966292 7.55909395 5.68749285 0 384.055481 277.819336 99.9999924 99.9999924 99.9999924 -1.57079637 0 0 0.0448974445 0.0133887324 0.955685794 0.701830149 0.677650154 0 
-0.398950905 7.29582405 5.57283783 0 384.055481 277.819305 100 100 100 -1.57079649 0 0 -0.907790899 0.270706385 0.122767068 0.641192853 0.614893794 0 
0.587983549 6.66833305 5.54455185 0 384.055481 277.819305 99.9999924 99.9999924 99.9999924 -1.57079649 0 0 0.922936082 0.275222689 -0.0873147771 0.620824575 0.694717407 0 
-1.73450983 1.93701184 -5.08514214 0 384.055481 277.819336 100 100 100 -1.57079661 0 0 0.920835435 -0.274597049 0.0947624221 0.177163735 0.579955578 0 
-1.30900455 4.13975811 5.46486235 0 384.055481 277.819305 100 100 100 -1.57079649 0 0 -0.703321218 0.209732652 -0.656291962 0.364938021 0.605122924 0 
0.915386736 4.8004179 5.65335083 0 384.05545 277.819336 100 100 100 -1.57079637 0 0 -0.688165963 -0.205213308 0.695299983 0.462392628 0.667792678 0 
-1.06562686 4.2106967 5.52126646 0 384.055481 277.819305 100 100 100 -1.57079649 0 0 0.86045754 -0.25659138 -0.251835376 0.376505435 0.581952751 0 
-0.96802938 5.36153793 5.591506 0 384.055481 277.819305 100 100 100 -1.57079649 0 0 -0.85934037 0.256258219 0.252978265 0.471611053 0.61658293 0 
1.91047645 2.12320042 -5.006989 0 384.055481 277.819305 100 100 100 -1.57079649 0 0 0.709742785 0.211649165 0.647772312 0.22269015 0.701907635 0 
0.786258876 5.10873842 5.54919624 0 384.055481 277.819305 100 100 100 -1.57079649 0 0 -0.938268185 -0.279794723 -0.051557187 0.490347117 0.658366859 0 
1.54657412 3.41254282 5.51486444 0 384.055481 277.819305 100 100 100 -1.57079649 0 0 0.842622519 0.251272827 -0.297741562 0.335357845 0.697409034 0 
1.22441292 4.43667078 5.47439528 0 384.055481 277.819305 100 100 100 -1.57079649 0 0 0.729879379 0.21765241 -0.587933064 0.425647169 0.701069593 0 
-1.47266364 2.82551408 5.53582287 0 384.05545 277.819305 99.9999924 99.9999924 99.9999924 -1.57079637 0 0 0.901010096 -0.268684328 -0.147456259 0.255073667 0.580634892 0 
-1.30333769 4.27492905 5.5642786 0 384.055481 277.819305 100 100 100 -1.57079649 0 0 -0.936312616 0.279211581 0.056590721 0.37596935 0.614119053 0 
-1.64320385 2.39719224 5.45467281 0 384.055481 277.819305 100 100 100 -1.57079649 0 0 0.606645167 -0.180903763 -0.73304528 0.216450691 0.588536859 0 
-1.66012037 2.76486611 5.67693186 0 384.055481 277.819305 100 100 100 -1.57079637 0 0 -0.287157565 0.0856314749 0.873227596 0.245679751 0.627159953 0 
-1.17227137 3.86739159 5.51095867 0 384.055481 277.819305 100 100 100 -1.57079649 0 0 0.831740618 -0.248027906 -0.325750649 0.346271127 0.582885385 0 
0.0890467092 7.92731953 -0.505350769 0 384.055481 277.819305 100 100 100 -1.57079649 0 0 0.688149691 0.677875638 -1.10111692e-07 0.386694193 0.757439494 0 
1.61484993 2.95726252 -4.98267221 0 384.05545 277.819305 100 100 100 -1.57079649 0 0 0.372870982 0.111191809 0.835387468 0.297020823 0.706344485 0 
0.873821676 5.01546621 5.44995165 0 384.055481 277.819305 100 100 100 -1.57079661 0 0 -0.528399944 -0.157570764 -0.766725659 0.480725765 0.717516482 0 
0.57210809 6.54813194 -4.99429846 0 384.055481 277.819305 100 100 100 -1.57079649 0 0 0.549916506 0.163987443 0.76283294 0.611517608 0.703874767 0 
-1.53027642 2.66832352 5.60287476 0 384.055481 277.819305 99.9999924 99.9999924 99.9999924 -1.57079649 0 0 0.828788161 -0.247147411 0.333349913 0.241019085 0.643829226 0 
0.109590136 7.90677738 5.15761757 0 384.05545 277.819305 100 100 100 -1.57079649 0 0 0.846908391 0.519116819 -8.42466008e-08 0.0365475304 0.755644381 0 
-0.31940642 6.91242218 5.66748619 0 384.055481 277.819305 100 100 100 -1.57079649 0 0 0.481415629 -0.143559635 0.783633232 0.612202406 0.636282086 0 
1.26581681 3.53423524 -5.06678391 0 384.055511 277.819305 100 100 100 -1.57079649 0 0 -0.870765626 -0.259666115 0.225302607 0.351913691 0.65617764 0 
-0.0906616896 7.75349998 0.200478017 0 384.055481 277.819275 100 100 100 -1.57079649 0 0 -0.700630009 -0.665395379 1.07268029e-07 0.343052149 0.732452393 0 
1.54714656 3.34165812 -5.00703335 0 384.05545 277.819305 100 100 100 -1.57079649 0 0 0.704306245 0.210027516 0.653755307 0.329630882 0.701901853 0 
0.153793216 7.37840319 5.45632744 0 384.055511 277.819275 100.000008 100.000008 100.000008 -1.57079661 0 0 -0.669840217 -0.19974874 -0.686845958 0.688496292 0.718865156 0 
-1.46831596 3.39226818 -5.22069979 0 384.055481 277.819275 100 100 100 -1.57079649 0 0 -0.253798723 0.0756826028 -0.887954831 0.300859898 0.62757349 0 
-0.0220071469 7.9631052 -4.6071043 0 384.055481 277.819305 99.9999924 99.9999924 99.9999924 -1.57079649 0 0 -0.170070454 0.954429746 -1.55496323e-07 0.640309513 0.765115559 0 
-1.6303879 3.02448153 -4.99741125 0 384.055481 277.819305 100 100 100 -1.57079649 0 0 -0.624862075 0.186337143 0.724140108 0.267320007 0.603837073 0 
2.3952105 0.619813621 -5.10149431 0 384.055481 277.819305 100 100 100 -1.57079649 0 0 0.950008392 0.28329581 -0.0226038098 0.089868769 0.693358302 0 
0.45129025 6.79146957 -4.97431135 0 384.055481 277.819305 100 100 100 -1.57079649 0 0 0.192099422 0.0572851747 0.904592991 0.634035826 0.708111525 0 
0.961756289 4.79177427 -5.21343184 0 384.055481 277.819275 100 100 100 -1.57079649 0 0 -0.378056467 -0.112738155 -0.833098352 0.46058163 0.671646357 0 
-0.441884309 6.89393282 -4.98307133 0 384.055481 277.819305 100 100 100 -1.57079649 0 0 -0.345325023 0.102977842 0.844280541 0.607768416 0.60079819 0 
-0.586099327 5.88158321 -5.1785593 0 384.055481 277.819305 100.000008 100.000008 100.000008 -1.57079649 0 0 0.742847919 -0.22152026 -0.566670597 0.522706747 0.64076376 0 
-1.30976319 3.96767998 -4.98110819 0 384.055481 277.819275 100 100 100 -1.57079649 0 0 -0.346124113 0.103215605 0.847195506 0.351050079 0.600381255 0 
-0.562481761 5.91206026 -5.05292559 0 384.055481 277.819305 100 100 100 -1.57079649 0 0 0.837085783 -0.249622434 0.319092453 0.525730669 0.582872629 0 
-1.49641883 2.81464362 -5.168293 0 384.055481 277.819336 100 100 100 -1.57079649 0 0 0.763035774 -0.22754091 -0.502590418 0.253626734 0.641693413 0 
1.04626548 4.63452768 -5.22901344 0 384.055481 277.819305 100 100 100 -1.57079649 0 0 -0.111655287 -0.0332966559 -0.950707257 0.445876181 0.674949765 0 
1.89136529 2.14875031 -5.19906569 0 384.055481 277.819305 100 100 100 -1.57079649 0 0 0.629806817 0.187809318 -0.718892157 0.225208387 0.684071481 0 
-2.11783934 0.639487505 -5.09382534 0 384.055481 277.819305 100 100 100 -1.57079649 0 0 0.945000529 -0.281802237 0.0325240418 0.063364245 0.579169035 0 
0.128498957 7.84296608 -2.15543914 0 384.055481 277.819336 100 100 100 -1.57079661 0 0 0.993034959 0.0259938296 -4.2178665e-09 0.488720685 0.751501322 0 
1.51676857 2.90437174 5.44439697 0 384.055481 277.819305 100 100 100 -1.57079649 0 0 -0.433422446 -0.129248157 -0.80865562 0.295115113 0.716341615 0 
-1.25245762 4.44462633 5.54782867 0 384.055481 277.819305 100 100 100 -1.57079649 0 0 -0.934457541 0.27865839 -0.0613655597 0.390870214 0.612630546 0 
-0.204438388 7.18632126 -5.19551563 0 384.05545 277.819305 100 100 100 -1.57079649 0 0 0.7120471 -0.21233502 -0.666823149 0.637042105 0.639205039 0 
0.254208386 7.70031834 -4.98746681 0 384.055481 277.819305 100.000008 100.000008 100.000008 -1.57079637 0 0 0 1 -1.62920671e-07 0.0824009404 0.216558054 0 
0.682240665 5.44993973 -5.09649467 0 384.055481 277.819305 100 100 100 -1.57079649 0 0 -0.953614295 -0.284371823 0.0121690687 0.52034992 0.658862114 0 
2.2322886 1.15712428 5.54659081 0 384.055481 277.819275 100 100 100 -1.57079649 0 0 0.932900429 0.27819407 -0.0681007802 0.137090892 0.694541633 0 
0.760531306 5.67185783 -5.23229933 0 384.055511 277.819305 100.000008 100.000008 100.000008 -1.57079649 0 0 0.0408597291 0.012183832 -0.975547731 0.536356211 0.677020252 0 
-0.122193009 7.32905579 5.55392742 0 384.055481 277.819305 100 100 100 -1.57079649 0 0 0.952193379 -0.283947259 -0.0167878084 0.650523067 0.578998506 0 
0.319244415 7.49247694 5.62369061 0 384.055481 277.819305 100 100 100 -1.57079649 0 0 0.749946415 0.223636642 0.504007578 0.693713784 0.6875543 0 
0.619266331 6.22732306 5.43238783 0 384.055511 277.819305 100 100 100 -1.57079649 0 0 0.202993765 0.0605332926 -0.90329504 0.584525347 0.708134711 0 
2.39541864 0.0291014928 -4.97741747 0 384.055511 277.819305 100 100 100 -1.57079661 0 0 -0.228610769 -0.0681721494 0.887043893 0.0422533303 0.71448046 0 
1.29131472 3.6569643 5.44482279 0 384.055481 277.819305 100 100 100 -1.57079649 0 0 -0.440704167 -0.131419614 -0.805440962 0.361193985 0.716430902 0 
1.66808724 2.98996401 -5.15059137 0 384.055481 277.819305 100 100 100 -1.57079661 0 0 0.812351346 0.242245674 -0.375656962 0.298376799 0.688911855 0 
-1.72130501 2.87644053 5.56202507 0 384.05545 277.819275 100 100 100 -1.57079649 0 0 -0.942590594 0.281083733 0.0404314622 0.25320226 0.613915026 0 
-0.947467387 5.34902096 5.65015793 0 384.055481 277.819305 100 100 100 -1.57079649 0 0 -0.694225311 0.207020387 0.675314367 0.471096456 0.621890306 0 
1.0830797 4.95146847 -5.04562235 0 384.055481 277.819275 100 100 100 -1.57079649 0 0 0.811810732 0.24208504 0.377047777 0.470537663 0.698407531 0 
-2.3317275 0.436420381 5.42642164 0 384.055481 277.819305 99.9999924 99.9999924 99.9999924 -1.57079637 0 0 -0.179289758 0.0534646474 -0.936603904 0.0418550968 0.59765172 0 
-0.623632669 6.55322313 -5.10684347 0 384.055481 277.819336 100.000008 100.000008 100.000008 -1.57079661 0 0 -0.93261224 0.278108239 -0.0636102781 0.57593894 0.614186823 0 
0.0886637866 7.92770243 -0.637722671 0 384.055481 277.819305 100 100 100 -1.57079649 0 0 0.685190499 0.680834889 -1.10593803e-07 0.394878864 0.757472873 0 
1.62665975 2.4033258 -5.18660355 0 384.055481 277.819305 100 100 100 -1.57079649 0 0 -0.710122168 -0.211761013 -0.635841012 0.252088636 0.667022467 0 
-0.115927227 7.68110752 -5.014853 0 384.055481 277.819305 100 100 100 -1.57079649 0 0 0 1 -1.62920671e-07 0.864349842 0.0556945428 0 
-0.869205832 5.71916771 5.54015303 0 384.055481 277.819305 100 100 100 -1.57079649 0 0 -0.911800206 0.271901906 -0.117710635 0.502811313 0.611936092 0 
-2.18886924 0.441324204 -5.06500626 0 384.055481 277.819275 100 100 100 -1.57079649 0 0 0.856607676 -0.255443126 0.247489825 0.0456841737 0.581776798 0 
-1.69593418 2.87938881 -5.16296864 0 384.055481 277.819305 100 100 100 -1.57079649 0 0 -0.777868748 0.231962711 -0.464412272 0.254049838 0.619265676 0 
1.06927919 4.19922352 5.59206438 0 384.055481 277.819305 100 100 100 -1.57079649 0 0 -0.858904004 -0.256128013 0.255834341 0.410236537 0.662247956 0 
-1.89907563 2.17580438 -5.17907095 0 384.05545 277.819305 100.000015 100.000015 100.000015 -1.57079649 0 0 -0.737355828 0.219880968 -0.574952126 0.192456022 0.620722651 0 
0.660479903 6.32137012 5.46978569 0 384.055481 277.819305 100 100 100 -1.57079649 0 0 0.703438699 0.209767714 -0.634935975 0.591115296 0.701483965 0 
1.08738565 4.6324296 -5.22530174 0 384.055481 277.819305 100 100 100 -1.57079649 0 0 0.175120324 0.0522207096 -0.92268914 0.444718838 0.67850554 0 
-2.28350806 0.671333075 -5.21912527 0 384.055481 277.819305 100 100 100 -1.57079649 0 0 -0.321958601 0.096007973 -0.863220572 0.0619491041 0.627239287 0 
0.0664522871 7.94991446 2.12939119 0 384.055481 277.819275 100 100 100 -1.57079637 0 0 0.513540864 0.852484465 -1.38559088e-07 0.223785564 0.759415627 0 
-0.0133554703 7.96542454 3.75864029 0 384.055481 277.819305 100 100 100 -1.57079649 0 0 -0.103210725 0.972344816 -1.58415077e-07 0.12304762 0.764565587 0 
-0.516637027 6.63752031 -5.21404552 0 384.055481 277.819305 100 100 100 -1.57079649 0 0 -0.33777383 0.100724839 -0.847533643 0.585304916 0.626162291 0 
-1.19802582 4.09183979 -4.97156572 0 384.055481 277.819275 100 100 100 -1.57079649 0 0 0.182975888 -0.0545646138 0.919221103 0.363743216 0.593821049 0 
0.925357342 4.75248766 5.64291573 0 384.055511 277.819305 99.9999924 99.9999924 99.9999924 -1.57079637 0 0 -0.717236519 -0.213882238 0.620474756 0.458289742 0.6668486 0 
-1.99034894 1.18821895 5.64802122 0 384.055481 277.819305 100 100 100 -1.57079649 0 0 0.686522901 -0.204723358 0.673997998 0.110658497 0.639743686 0 
0.120894931 7.87134552 3.56467843 0 384.055481 277.819305 100 100 100 -1.57079649 0 0 0.934271395 0.245302498 -3.98037976e-08 0.135040447 0.75331825 0 
0.450924605 7.06392765 -5.15612793 0 384.055481 277.819305 100 100 100 -1.57079649 0 0 0.782224298 0.233261034 -0.430436671 0.65600574 0.688403964 0 
-1.12056506 4.15695715 -5.20080042 0 384.05545 277.819275 100 100 100 -1.57079649 0 0 0.594022632 -0.177140415 -0.737755001 0.370853692 0.638085604 0 
-0.0647001043 7.72753763 -4.14454317 0 384.055481 277.819305 100 100 100 -1.57079649 0 0 -0.5 -0.866025388 1.39370016e-07 0.611708939 0.734723985 0 
-0.251702666 7.70031834 -5.25230265 0 384.055481 277.819305 100 100 100 -1.57079649 0 0 0 1 -1.62920685e-07 0.0601260476 0.17400673 0 
-0.904066801 5.08342075 -4.97084761 0 384.055481 277.819305 100 100 100 -1.57079661 0 0 0.170698628 -0.0509031713 0.924641192 0.450732082 0.593973637 0 
0.711591721 5.88042402 -5.22680855 0 384.055481 277.819275 100 100 100 -1.57079649 0 0 0.130786717 0.0390003584 -0.935584784 0.554344058 0.678183854 0 
-1.33561945 4.04831791 -5.00510502 0 384.05545 277.819305 99.9999924 99.9999924 99.9999924 -1.57079637 0 0 -0.698933661 0.208425283 0.667583942 0.3569282 0.604980409 0 
0.988758445 4.64486265 5.44812059 0 384.05545 277.819305 100 100 100 -1.57079637 0 0 -0.497087777 -0.148233399 -0.780549049 0.448092014 0.717128694 0 
2.08206391 1.06981158 -4.97866488 0 384.055481 277.819305 100 100 100 -1.57079649 0 0 -0.272937119 -0.0813908875 0.87336427 0.133664519 0.714743614 0 
