ply
format ascii 1.0
comment created by gply, a Houdini tool.
comment converted from .[b]geo
comment for more information about Houdini, try:
comment www.sidefx.com
element vertex 483
property float x
property float y
property float z
property float uv1
property float uv2
property float uv3
property float nx
property float ny
property float nz
element face 0
property list uchar int vertex_indices
end_header
2.67492223 3.90236449 4.15297127 0.86278224 0.065432936 0 0.48114109 -0.61648196 0.623053133 
1.55170417 2.04156995 3.41753006 0.596612394 0.195104778 0 -0.41512394 -0.301398039 0.858196318 
0.24680768 -0.0985854194 1.40136588 0.388963789 0.281344056 0 0.851305723 -0.524531066 0.00164656108 
1.56768203 3.11482859 3.88469934 0.607716858 0.118185423 0 -0.491421163 -0.240870386 0.836254418 
1.82300651 0.366583556 3.10782576 0.460786164 0.574267566 0 0.0696287379 -0.396113753 0.914202511 
3.10076976 4.62261629 3.34354043 0.638773561 0.649262309 0 0.862900674 -0.190486729 -0.262295246 
2.58859181 3.13118052 3.50723076 0.233259052 0.120878518 0 0.902975142 -0.359760523 0.234651119 
1.07430637 2.55518389 3.20479488 0.675489485 0.173409924 0 -0.719252467 -0.155587852 0.676959813 
1.98438275 4.92686319 3.48124671 0.172368273 0.349667192 0 -0.258001626 0.573845148 -0.417477608 
2.37995887 3.0673368 2.74186182 0.123477101 0.170500085 0 0.800390244 -0.173202321 -0.573792696 
-0.276943266 0.0383191891 1.26914084 0.990503848 0.872230053 0 -0.939017534 0.338593185 0.0539627075 
2.23607707 4.36444378 4.63420105 0.938474834 0.0183267258 0 -0.118386306 -0.599663436 0.791300833 
1.04521286 0.0065704952 2.83282781 0.456887275 0.395304441 0 -0.262110412 -0.256172657 0.92963779 
1.31177795 1.25105727 3.15640378 0.5424155 0.301262677 0 -0.37546581 -0.155876234 0.913084269 
1.75912678 2.14719844 2.1696012 0.0766338855 0.272988111 0 0.710585475 0.319345504 -0.626684546 
-0.107499696 -0.541157424 0.459291518 0.032814227 0.323117554 0 0.136935547 0.851022601 -0.506050229 
1.43284535 4.2757597 3.05997348 0.417125791 0.0741159171 0 -0.75108707 0.317958713 -0.577559412 
1.4206531 3.84635496 2.82747293 0.438146472 0.10179577 0 -0.703947425 0.331921935 -0.626343846 
0.445904434 1.64771461 2.13454151 0.697967827 0.576354325 0 -0.852815092 0.268155932 0.446009129 
2.11090446 1.79342771 2.38490558 0.150889814 0.271263838 0 0.848016798 0.257415205 -0.461480439 
2.24099827 2.1047101 3.20115161 0.887185812 0.202337667 0 0.840112925 -0.314220279 0.440441281 
0.16537264 -0.0499908179 2.27463508 0.0732856989 0.609242976 0 -0.658717096 0.0506994128 0.747524381 
1.62461662 -0.777729273 2.30577302 0.522008002 0.708330393 0 -0.837041199 -0.0143651254 -0.546785295 
-0.216464132 -0.0351842865 1.55560601 0.225585043 0.696090639 0 -0.843939662 -0.196239516 0.498404711 
0.812049091 0.399700761 2.83555627 0.517853975 0.391564786 0 -0.32670334 -0.274820954 0.904179633 
0.617707372 -1.18755519 2.38195562 0.34498015 0.573026717 0 0.0213034581 -0.477114975 0.878350019 
1.1619879 3.47017479 3.44143891 0.69144839 0.111189783 0 -0.946093678 -0.0126165468 0.322753191 
1.74788225 -1.03576183 2.22555566 0.322398305 0.473684043 0 -0.513603568 -0.365206927 -0.774753571 
2.66708946 3.55202198 2.98151994 0.135201022 0.120362453 0 0.867229998 -0.314937651 -0.385626823 
0.550235391 0.203689367 2.63465524 0.531594813 0.427709877 0 -0.658438563 -0.157357603 0.735961199 
1.32397807 3.91615868 3.84506989 0.664620936 0.0725609064 0 -0.827678859 -0.13074933 0.544553578 
0.149020121 0.844777167 1.0534867 0.823580801 0.919740915 0 0.649501562 0.263899237 -0.713002503 
1.39708936 2.14378762 1.88871765 0.0522383079 0.768887699 0 0.320597827 0.688209355 -0.650523007 
0.913634658 2.59958673 2.57869768 0.397616684 0.19847396 0 -0.837135673 0.504718482 -0.210091665 
2.3355751 2.26952982 2.94868088 0.202764884 0.207877845 0 0.973651528 -0.225607216 -0.0278481543 
2.1818223 3.19163704 2.50843596 0.073645778 0.182337314 0 0.566300809 -0.0402379856 -0.823121846 
0.00609182892 -0.918413162 1.83734584 0.523804486 0.778474271 0 0.0187365394 -0.809172511 0.586459339 
1.25308657 2.76846957 3.47763872 0.649649799 0.151948079 0 -0.78986305 -0.202929527 0.578471005 
1.332654 2.02295351 3.30482697 0.624346733 0.200855806 0 -0.560508132 -0.230833918 0.794418812 
-0.0628039986 -0.642140567 0.960832953 0.792858005 0.91253221 0 -0.019179469 -0.730707884 0.681558251 
1.60719919 1.1785115 2.04124737 0.904871881 0.698824823 0 0.133968398 -0.0854502022 -0.987221479 
2.10281634 0.81493628 3.01817679 0.424431384 0.538149595 0 0.406555116 0.0599288121 0.908872724 
0.419939429 0.429752588 1.53675985 0.687868893 0.838361859 0 0.202787608 -0.306621432 -0.929755211 
0.779839575 0.164454967 2.7651751 0.500866234 0.408604026 0 -0.589628696 -0.164392844 0.790275693 
1.1803652 2.72200203 3.36718416 0.661921144 0.158257991 0 -0.756440043 -0.178503096 0.628723145 
-0.0785550475 -0.823438168 0.702111065 0.95678097 0.99078238 0 -0.142560065 -0.884223044 0.444631904 
-0.016853217 1.11900282 1.41245854 0.0175779033 0.671908379 0 -0.786748588 0.608082533 -0.0818953514 
0.291182071 -0.559060633 1.67663372 0.343519926 0.905745685 0 0.49373889 -0.0898261517 -0.864675283 
2.08871317 0.668684721 2.12473822 0.969240785 0.67537415 0 0.514994919 -0.0189541839 -0.856791019 
2.39153075 1.08890104 2.50438666 0.294402122 0.341778845 0 0.960088849 -0.0125213377 -0.275832355 
2.09341502 4.17997265 2.63454032 0.662367642 0.350178719 0 -0.0967174545 0.220636576 -0.970484853 
-0.111445524 0.157420069 1.20459759 0.979805589 0.844926178 0 -0.345246553 0.69690156 -0.628215134 
1.3105489 1.88906908 3.25567341 0.624509633 0.210375309 0 -0.512030721 -0.164842665 0.842318714 
2.22022271 0.466510624 2.26786947 0.293740392 0.779133499 0 0.748532712 -0.201551497 -0.63111192 
0.92441231 0.955146968 1.7738167 0.609482408 0.579621077 0 0.557793498 -0.380298555 -0.73751545 
-0.164074883 -0.485923916 1.91319644 0.693661034 0.256476939 0 -0.877374351 -0.0378225669 0.477098644 
1.26071084 3.81762338 3.04766536 0.393760443 0.109283827 0 -0.851109564 0.305033088 -0.426932335 
0.0341932103 -0.42638877 0.674109399 0.840660095 0.86814642 0 0.792603374 0.484663546 -0.369089425 
-0.19684951 0.811067641 1.06703484 0.0586771965 0.692896426 0 -0.65266943 0.653713405 -0.380987108 
0.764208853 -0.370703936 2.11737967 0.352953881 0.969088912 0 -0.394392967 -0.505137622 -0.760520279 
-0.071030058 -1.59505212 0.923503935 0.88429153 0.604488492 0 -0.249684438 -0.946763933 -0.202642441 
2.33961248 0.479595333 2.76797366 0.357118845 0.362865806 0 0.918781817 -0.0768298209 0.386574507 
0.156333014 -0.225688979 1.23475492 0.784785867 0.239447892 0 0.982171714 -0.0784087777 -0.169685975 
0.422994107 -1.08810866 1.96732163 0.6600582 0.974737823 0 -0.391224295 0.363645792 -0.845041573 
2.32808661 3.0017705 2.69062948 0.118527792 0.178698361 0 0.776495934 -0.195702016 -0.598779082 
0.546876669 -1.7946372 1.88526011 0.534794867 0.964768291 0 0.952512324 -0.303210139 0.0200887881 
1.77188599 -0.768713355 2.1609509 0.40778932 0.883714557 0 -0.497855246 0.153918788 -0.85181725 
1.02110898 1.4634819 3.02742982 0.0453926325 0.500895143 0 -0.698598146 0.260626644 0.662962317 
2.26057673 2.63634944 3.63291788 0.90557158 0.155215934 0 0.703248262 -0.438168526 0.554703712 
1.48091125 3.86118007 4.0246644 0.635582387 0.0700405017 0 -0.711264729 -0.184415087 0.677931964 
0.657436192 -1.37727487 2.2239306 0.322862506 0.591985464 0 0.413682491 -0.650466859 0.636411965 
2.27638936 0.356174618 2.87295794 0.381115317 0.363541096 0 0.816366136 -0.0732850656 0.572458625 
1.04330313 1.36367059 1.60716569 0.590814292 0.540614665 0 0.52467078 -0.391217411 -0.754076958 
1.69730663 -0.49031651 2.29738021 0.534239292 0.691670537 0 -0.576642513 0.288697928 -0.762801409 
0.572097659 -0.69640404 2.48985076 0.307183862 0.667291522 0 -0.593954802 -0.0910188705 0.79871583 
1.98936999 3.60087013 4.18914747 0.868309617 0.408369243 0 -0.096016258 -0.418262631 0.903076768 
2.37463498 2.62559414 2.84473991 0.166498676 0.191333324 0 0.91521585 -0.157884017 -0.369861782 
1.94731438 0.697994292 2.06806493 0.95727843 0.68840462 0 0.238422364 -0.116188653 -0.964122534 
3.04224539 4.2984395 3.25159621 0.134847373 0.0511403456 0 0.889428258 -0.336027741 -0.309794962 
0.547124624 0.648662925 2.64358139 0.575123727 0.405408204 0 -0.443074018 -0.152535841 0.883146882 
1.93754423 2.73548126 2.38441706 0.0719517767 0.224100024 0 0.559309483 0.0314436741 -0.827941358 
2.52414083 2.89076662 3.26329541 0.211040676 0.149595022 0 0.936164379 -0.35002318 -0.0101188244 
0.637992442 1.32755351 2.63031173 0.082767576 0.515930891 0 -0.766966045 0.195825204 0.611064613 
0.359702885 -0.0635658428 1.80445802 0.608893454 0.972358286 0 0.334066868 0.00462979684 -0.942340136 
-0.189466804 -0.261042476 0.795398712 0.0232086387 0.291748077 0 -0.28324303 0.717017412 -0.636853993 
0.384104043 0.261883169 2.52335143 0.557330489 0.441002548 0 -0.539824247 -0.280149788 0.79175967 
2.11985683 3.71257925 4.25102043 0.940740228 0.0694500431 0 -0.0626565516 -0.441346526 0.894937456 
0.545100629 1.6830132 1.52228761 0.634741187 0.857922971 0 -0.303073704 0.705206811 -0.639639497 
2.36852407 2.99137926 3.76531553 0.893997431 0.130485848 0 0.544018149 -0.465240806 0.697010756 
1.57803094 0.0300004873 2.405797 0.162496746 0.972769916 0 -0.036064826 -0.927259624 -0.366583079 
0.138386175 0.720387638 1.63195634 0.0682744682 0.472518981 0 -0.912018299 -0.309961259 -0.247484356 
0.546332717 -0.389793366 2.41104698 0.350370556 0.643085003 0 -0.935925543 0.236796141 0.260165781 
1.16163766 2.91355324 3.38555264 0.670507133 0.146428019 0 -0.7745803 -0.0328204818 0.631368637 
2.86032534 4.67845917 3.41192675 0.590109229 0.665947735 0 0.558787704 -0.110651076 -0.292764932 
1.72556984 -0.0809278414 2.42402697 0.516963303 0.660457432 0 -0.821653485 0.2810058 -0.495604336 
0.138852939 0.931277931 2.11814713 0.122187078 0.548393011 0 -0.834653497 0.197426885 0.513012707 
0.296751916 1.32553923 2.07002902 0.899470627 0.561092019 0 -0.843214869 0.447892427 0.293632329 
1.23073864 4.0852828 3.63870883 0.69775182 0.0683257952 0 -0.966231823 0.0192765798 0.256509572 
2.76756859 4.01007652 4.17167139 0.850500405 0.0591879711 0 0.566593766 -0.623219132 0.53836149 
0.354919493 1.35255218 2.19561291 0.125304312 0.519085586 0 -0.801443994 0.545194864 0.242882505 
1.18503129 3.05307126 3.44177747 0.670480847 0.136343077 0 -0.829594791 -0.10577593 0.547890067 
1.78024375 4.95066977 3.0406394 0.465461552 0.0193622541 0 -0.596411943 0.36633721 -0.713745117 
0.0629923418 0.744487107 1.75143528 0.670206785 0.258941889 0 -0.907016933 0.297819555 -0.28529793 
1.35434151 0.88022548 2.05434489 0.655063748 0.543631375 0 0.292471528 -0.28579852 -0.91250813 
1.75192511 2.92497516 2.34103489 0.693702459 0.427759081 0 0.140760317 0.156321168 -0.977059245 
1.97460854 1.05246699 3.12060404 0.450916052 0.525816023 0 0.442602843 -0.0985634178 0.889877558 
2.59316707 4.41505957 2.75442648 0.0358227417 0.0884146988 0 0.440354437 0.0213861875 -0.897518873 
2.29197526 2.48830795 2.70227575 0.15353778 0.209326297 0 0.870656013 -0.0744411796 -0.485222578 
0.535914421 -1.8645997 1.80628932 0.530894041 0.973014295 0 0.996696711 -0.0765199512 -0.0186326914 
1.15071559 3.37176251 3.40427971 0.691064477 0.11821682 0 -0.939003468 0.0217490662 0.342214048 
2.29041791 2.58101225 3.55547452 0.897718608 0.161487088 0 0.673160911 -0.505628705 0.538928568 
0.117771722 0.0765056759 1.7984879 0.914952636 0.212836578 0 -0.0319409296 -0.343489766 0.412174493 
0.891729534 -0.999772906 2.1653645 0.211908132 0.792013586 0 0.798075736 -0.442826807 -0.404822946 
1.74184287 3.88613367 2.6179049 0.500399053 0.0879857838 0 -0.346766263 0.356652588 -0.867070436 
0.56695509 -0.147307158 1.89868081 0.765871048 0.789288044 0 0.0291924551 -0.551348209 -0.832936049 
0.354149669 0.524250269 1.48666453 0.679261327 0.831140995 0 0.0429624245 -0.428054422 -0.899087429 
1.00165927 2.94198418 3.03052139 0.350939453 0.173956692 0 -0.978892028 0.172623694 0.106322527 
1.26557958 3.15011072 3.58288527 0.657128155 0.126160547 0 -0.803232133 -0.180957824 0.567240536 
1.00116503 0.141023844 1.98478293 0.719595373 0.770195603 0 0.544361353 0.0506677404 -0.837133408 
0.950167656 2.00730014 2.93563271 0.682939112 0.214029655 0 -0.859336376 -0.115379393 0.497312188 
1.61058927 3.0403595 3.88930368 0.600558639 0.122221082 0 -0.479457259 -0.268720448 0.832830966 
1.39109576 -0.0613450259 2.74633932 0.690737545 0.975715995 0 0.474973023 -0.765614629 0.433181286 
-0.00530653261 -0.868216097 1.90401161 0.518341899 0.770073295 0 0.0199959502 -0.747445464 0.662277341 
0.23427628 -0.851576388 1.74008644 0.451029956 0.785139143 0 0.745548844 -0.650188684 0.143561125 
1.90551019 3.76129365 4.24184275 0.858195007 0.394121975 0 -0.262589455 -0.367800295 0.891929924 
0.602666616 1.49950206 2.51320624 0.0990104526 0.506193459 0 -0.775339067 0.248376653 0.580376983 
2.86134768 4.58313274 3.79197621 0.0940270424 0.397324622 0 0.618918896 -0.21613875 0.0234995186 
-0.0632397905 0.901352346 1.06660795 0.0544038638 0.671345115 0 -0.389320761 0.675569713 -0.625478983 
2.28340149 0.790412307 2.900208 0.374513 0.336434543 0 0.701459527 -0.0562410168 0.709531724 
0.834673107 -1.13052368 2.27667904 0.310582131 0.5726524 0 0.853550792 -0.476029694 0.208886206 
2.33336997 3.16615677 2.64173245 0.101809263 0.171317697 0 0.767867684 -0.212415114 -0.604140341 
0.193577498 0.771777093 2.23737097 0.105746031 0.557145953 0 -0.827424109 0.132731631 0.542816401 
0.993995547 0.868117929 2.95247412 0.54204452 0.35081175 0 -0.361730218 -0.0375631265 0.928820252 
1.64940763 -0.952479362 2.28569531 0.526518106 0.721270025 0 -0.772846103 -0.150168777 -0.616161704 
2.24397731 4.81150723 3.62765241 0.149418294 0.369731039 0 -0.150460899 0.644864619 -0.288091421 
0.59113133 1.82448721 1.66346288 0.620123208 0.860469997 0 -0.456162393 0.751833916 -0.473999918 
0.348551959 -1.60400105 2.06825352 0.078290455 0.93334496 0 -0.573805749 -0.3238554 0.750044107 
1.61067581 3.73747492 2.61446977 0.483386934 0.102068976 0 -0.4343701 0.379988968 -0.815983951 
0.462918401 -0.108763777 1.8603375 0.616040707 0.980879784 0 0.415903747 -0.312487543 -0.853356123 
0.579528928 1.25932789 1.40453649 0.818974078 0.63926661 0 0.672563374 0.0546423607 -0.737563252 
0.710204124 2.03246784 1.97912169 0.59105444 0.866429329 0 -0.755631804 0.647691965 0.0852908641 
2.72868824 3.78899503 3.97372055 0.847133219 0.0794988647 0 0.723091245 -0.519062757 0.454178452 
1.62474895 4.99730349 3.20339823 0.429579377 0.0216988642 0 -0.661659956 0.283727676 -0.693757653 
0.757113755 1.17412996 2.78949857 0.0605672523 0.523220062 0 -0.620529115 0.0774186924 0.779867411 
1.42462587 0.935174942 3.1478231 0.500824809 0.309523314 0 -0.43382749 0.0251104776 0.899872661 
2.02628326 4.51730585 2.74838281 0.624950588 0.336863577 0 -0.252364486 0.255955398 -0.933088422 
-0.0713464022 1.03691518 1.46027529 0.970849872 0.535113573 0 -0.850062966 0.435211271 0.291529298 
1.48405302 0.0184662528 2.34754419 0.825324595 0.619781613 0 0.796380699 -0.32313326 -0.508810043 
1.18454003 1.62281156 1.61897326 0.247097507 0.57815063 0 0.551675081 -0.162380949 -0.817038178 
0.966509581 1.83578336 2.94729614 0.673670053 0.22381261 0 -0.749514818 -0.196393669 0.621478379 
1.26764274 4.13206959 3.24258518 0.37498945 0.0891935527 0 -0.878136516 0.248672143 -0.408289582 
1.20164728 2.2144506 3.2215569 0.649338007 0.19235982 0 -0.72714591 -0.122427851 0.675103247 
0.923547328 2.45052123 2.96598363 0.701512694 0.186941594 0 -0.919412732 -0.0278369114 0.392287612 
2.02564955 4.25007772 2.66135049 0.645204127 0.349993467 0 -0.17163229 0.287925273 -0.942004144 
2.3999691 2.55523515 2.98796844 0.191250026 0.187227666 0 0.967333078 -0.199426591 -0.15553166 
0.921660125 2.6100831 2.95300174 0.710366189 0.177780539 0 -0.95807749 0.0692278668 0.261604071 
-0.0239393562 -0.789231062 0.756229341 0.782186985 0.931371391 0 0.275977463 -0.845790505 0.455375135 
0.180245459 -0.415484011 1.59008396 0.353600174 0.929572344 0 0.510812223 -0.112174928 -0.852238476 
0.071736671 -0.282222033 0.87346822 0.823596239 0.874554992 0 0.834642649 0.339957237 -0.433086693 
2.22783303 3.45245647 2.53611708 0.739493132 0.377947569 0 0.459700704 0.0348533839 -0.887158394 
2.60464931 4.76935577 3.35860705 0.115447223 0.345900446 0 0.277877271 0.0224729329 -0.372425824 
2.41177368 4.72298002 3.77813482 0.134830341 0.388812065 0 -0.0386024714 0.718734503 -0.153504759 
3.11488366 4.32948923 3.66344118 0.191489667 0.0264635906 0 0.88989979 -0.453955591 0.0428457037 
1.62049258 -0.730926454 2.57161331 0.840814054 0.540554762 0 -0.393954217 -0.348172307 0.850479007 
1.804407 -0.443813115 2.26951575 0.402355373 0.863532066 0 -0.31501174 0.144581497 -0.936136365 
2.09871125 0.358290166 2.97198868 0.718807936 0.658932567 0 0.19154346 -0.199831605 0.960705042 
0.14009507 -1.29382443 1.20098436 0.0164821371 0.843586087 0 0.988983989 -0.0970197693 0.109079413 
-0.267572373 -0.854772449 1.47723258 0.200299978 0.851711214 0 -0.993484855 0.108835921 -0.0284096524 
-0.032238666 -0.598291576 0.433705628 0.0446445346 0.3265661 0 0.536731422 0.595121205 -0.59809804 
0.719143331 1.7874341 1.556566 0.626012504 0.838980913 0 -0.172677457 0.524000943 -0.83360219 
1.31160104 4.58111858 3.86639977 0.694828629 0.0317827649 0 -0.960705996 0.034235321 0.275371224 
1.15010548 2.41783547 2.17218685 0.00703929923 0.784317911 0 -0.21687533 0.643929124 -0.731598198 
1.65831566 3.11389136 2.37915277 0.6633358 0.42326948 0 -0.0910168439 0.199798539 -0.975467563 
2.76430535 4.64683294 2.83454418 0.0410019085 0.0641987026 0 0.46344763 0.0624441616 -0.883834302 
2.2237432 2.88954425 3.81483579 0.914965272 0.450787991 0 0.490119159 -0.368083894 0.789582551 
1.03965592 3.12814379 3.05990934 0.357054114 0.160490751 0 -0.980687499 0.189423054 0.0386666954 
2.25554323 3.45573759 4.08586168 0.918183088 0.0912197977 0 0.298647195 -0.445499301 0.843853533 
3.00197816 4.18853712 3.98772573 0.804390252 0.0595979393 0 0.862170696 -0.444181919 0.237623811 
1.29241145 3.2372396 3.63779211 0.654439449 0.119257115 0 -0.792097449 -0.137136579 0.594430327 
0.121417575 -0.749778152 1.46438444 0.26483959 0.840138435 0 0.738540053 0.486015081 -0.466326118 
1.31472337 2.22046137 1.9440403 0.040947549 0.774791598 0 0.193589479 0.775481224 -0.600707114 
0.890089154 1.20806634 2.89055347 0.588531017 0.343967974 0 -0.638715386 -0.167166114 0.747046053 
0.815323949 2.19965291 2.51257348 0.740421951 0.213890985 0 -0.973498821 0.210016489 0.0883094668 
0.784714699 -0.297753811 2.67351484 0.378454566 0.498178631 0 -0.410391152 -0.282854229 0.846256733 
0.56415379 1.38903284 1.41071939 0.952498794 0.89980644 0 0.431702405 0.0421810895 -0.9005723 
1.77992535 2.25016236 2.21630955 0.0755595565 0.264543533 0 0.545930326 0.180132642 -0.818097591 
1.8420198 3.92418981 4.285604 0.848225236 0.383032203 0 -0.35813725 -0.348110467 0.865894914 
1.3795718 3.19584084 2.52359605 0.462237 0.144366458 0 -0.572547853 0.358468473 -0.736631274 
0.998035848 0.969809294 2.96410751 0.551234484 0.345022857 0 -0.41441673 -0.108861893 0.902984202 
2.08373117 3.51892996 2.48888516 0.70818305 0.382808357 0 0.189310446 0.151216418 -0.970164776 
0.637325227 -1.35018897 1.92629242 0.130921543 0.688448548 0 0.731830716 0.0627818331 -0.678257823 
1.579669 3.03503942 2.36849141 0.655050755 0.430885613 0 -0.116690829 0.299985707 -0.946686625 
2.39515758 4.52709484 4.58178663 0.39438659 0.680544615 0 0.282317787 0.930640638 0.232818782 
1.89184749 4.66288567 2.85357499 0.497710675 0.0336827934 0 -0.409200788 0.331754863 -0.849474669 
-0.0729285777 -1.5774616 1.03888798 0.112425372 0.869718075 0 -0.14919588 -0.895373583 0.419133782 
1.7044673 2.51311398 2.23449063 0.71572727 0.450177312 0 0.327768922 0.245112389 -0.911275983 
1.39283347 3.93626785 3.94402885 0.652159154 0.0682602897 0 -0.780218482 -0.144234404 0.608390152 
1.3896172 0.641235709 3.13717031 0.475585461 0.327263832 0 -0.337023139 -0.091485329 0.936821461 
1.71265161 -0.0354192741 2.81976938 0.79150033 0.532372355 0 -0.606466651 -0.333742738 0.720454454 
0.162398979 -0.860246003 1.43733239 0.278737426 0.843855798 0 0.937749505 0.243915975 -0.246001825 
-0.228693083 -0.458671361 1.10481334 0.955658317 0.775072813 0 -0.63553679 -0.606752634 0.47602731 
1.06171894 3.01921797 3.21454287 0.697352409 0.145300716 0 -0.922032237 0.0786761642 0.378506422 
1.04051089 0.222614229 2.87923241 0.476845026 0.382701755 0 -0.59840858 -0.11276038 0.792922378 
0.806210279 1.24028361 2.82704639 0.0585857779 0.518353462 0 -0.663261831 -0.0733996183 0.74407059 
1.68890607 3.40151691 4.04286766 0.879609287 0.355501831 0 -0.415485442 -0.344262004 0.841812313 
2.09682655 5.00968313 3.01355028 0.160083175 0.300231576 0 -0.219504029 0.37447378 -0.78324306 
0.658266723 0.551102042 1.64903283 0.819423914 0.694403052 0 0.678718567 -0.208053172 -0.703644812 
0.602110326 -1.62057519 1.99087918 0.155318826 0.703963041 0 0.967351198 -0.233077422 0.0924141705 
2.41281009 4.91537094 3.00735211 0.587954044 0.713450074 0 0.0357039981 0.206266448 -0.766366482 
1.30345607 0.351055533 3.05537176 0.458387554 0.351003647 0 -0.353088975 -0.272724122 0.89474225 
1.99626863 1.65858817 2.19927144 0.242719933 0.509664297 0 0.682844877 0.162557811 -0.711501122 
-0.138153777 0.896927536 1.15462053 0.0478495881 0.685734749 0 -0.675670505 0.679511487 -0.284028858 
1.26044953 4.41836977 3.6622653 0.710397065 0.0472622737 0 -0.985658109 0.130002812 0.103013217 
3.11576819 4.5661068 3.55136108 0.606550694 0.641662896 0 0.856383324 -0.269212067 -0.0929700732 
2.40329123 3.18618584 2.72901058 0.115161814 0.163364291 0 0.793452621 -0.221096441 -0.566928804 
2.34914732 0.477217317 2.57920742 0.267971396 0.748292029 0 0.876008332 -0.412325323 -0.248992383 
1.99896824 2.4364686 2.40139389 0.100634851 0.237491131 0 0.649034679 0.113723569 -0.751538873 
0.351073146 1.33283603 1.35695577 0.937875152 0.917890191 0 0.0365496725 0.523529232 -0.850952268 
2.28573132 4.12586784 4.46168852 0.925924182 0.0386874042 0 -0.00287306961 -0.578396797 0.815234125 
0.521772087 1.83915496 1.86472332 0.118357241 0.772704244 0 -0.725418031 0.678807616 -0.0765222833 
2.40538383 2.63720846 2.92921162 0.178113893 0.185325921 0 0.946862817 -0.220625281 -0.233747259 
-0.229296535 -0.696625113 0.580844223 0.95435977 0.957272112 0 -0.911509275 -0.40152213 -0.0872124806 
3.02728295 4.63092852 3.39946079 0.618078709 0.653278708 0 0.762603402 -0.155460626 -0.279745877 
-0.248419702 -0.681154668 1.53943098 0.190257803 0.829861641 0 -0.794077635 0.247450441 -0.553560376 
2.76965189 3.63418341 3.28972912 0.175331667 0.0967553258 0 0.917156339 -0.392925978 -0.0655809939 
0.909526467 0.190491632 1.94065189 0.723362029 0.781439185 0 0.395537257 0.0909572244 -0.913909376 
0.815445542 2.16056466 2.1686914 0.430208981 0.230332389 0 -0.82268095 0.56091398 -0.0872243494 
0.667892814 -1.0016197 2.45048976 0.350110888 0.557303071 0 -0.0140978843 -0.327787429 0.944068313 
0.375332564 -1.754457 1.98238373 0.0933458284 0.933507204 0 -0.514228225 -0.593086839 0.618867755 
1.09587336 1.63567507 1.57070673 0.243801653 0.585089982 0 0.448353946 -0.0425664447 -0.892495573 
1.68588471 3.57657838 2.52810645 0.633214295 0.399142742 0 -0.237065747 0.269380391 -0.933134794 
2.0880847 1.59724092 2.27289367 0.256427824 0.501399636 0 0.735150933 0.157043681 -0.658983529 
-0.262793332 -1.09899271 1.388533 0.613476515 0.776883721 0 -0.870990634 -0.299468398 0.387892127 
1.3104738 -0.123006642 2.32156324 0.821287036 0.796948075 0 0.900067866 -0.157203272 -0.404900551 
1.3832047 3.60800219 2.73167849 0.442562878 0.118119992 0 -0.680782974 0.310304224 -0.663288355 
0.594228387 0.49403134 1.60254467 0.800167143 0.695932508 0 0.617361069 -0.012750865 -0.785445511 
1.84213841 3.48539829 4.12091112 0.874750018 0.382831007 0 -0.194807097 -0.315354884 0.928687572 
2.52735758 4.67217159 3.84110641 0.124602139 0.397503018 0 0.00760017335 0.749246538 -0.0979169309 
1.34192955 4.39553976 3.26248097 0.384486496 0.0697488189 0 -0.818123162 0.41279462 -0.399810076 
1.20587718 3.46515465 2.87633514 0.404307544 0.133350611 0 -0.80039835 0.353113651 -0.483777165 
0.650544226 1.70799184 2.50261116 0.705738783 0.543895364 0 -0.89877677 0.243851483 0.361973703 
1.68437827 3.2302537 3.98432207 0.889763117 0.354945153 0 -0.3792243 -0.279955029 0.881834865 
1.17443669 1.14150465 1.84375477 0.621294737 0.542370737 0 0.507373393 -0.491213441 -0.707520425 
2.33975506 2.74462533 3.62501597 0.927968502 0.477960318 0 0.70086354 -0.452326417 0.551011324 
1.25868559 1.02345002 1.96009469 0.637811124 0.542345107 0 0.495439291 -0.342419952 -0.79820013 
1.28869712 2.54918003 3.43293285 0.640629828 0.165992856 0 -0.723910391 -0.24874711 0.642677367 
2.08696008 3.61713719 4.20213413 0.86790657 0.425065517 0 -0.0112817902 -0.431842923 0.901690185 
0.752339005 1.51854348 2.71968031 0.0797717273 0.502336621 0 -0.807462573 0.287028909 0.514825404 
1.62768269 4.50159597 2.97509456 0.451251328 0.0530638807 0 -0.654719591 0.355273455 -0.667011917 
0.0797623768 1.00630653 1.91858482 0.937970042 0.574556291 0 -0.964242339 0.179805011 0.194477707 
0.665991068 1.92778718 2.28792286 0.753674805 0.237842187 0 -0.85479039 0.400651157 0.322683364 
1.78007948 -0.687375903 2.64700747 0.838434339 0.566565096 0 -0.096504733 -0.56485188 0.818821788 
2.26689553 4.56177187 4.59871817 0.397460073 0.688954473 0 -0.204146117 -0.0692895949 0.652661204 
1.75954282 4.43669605 4.49101448 0.600741148 0.0210787095 0 -0.511717081 -0.401921928 0.75911957 
0.0535667539 -1.49213874 0.788059533 0.0859773457 0.4569709 0 0.695004106 -0.17756407 -0.696370542 
0.988545716 -0.744271636 2.19980478 0.209685862 0.775095224 0 0.85536629 -0.178392231 -0.48626703 
0.859772563 1.72863197 2.81727195 0.706439078 0.514894962 0 -0.815108001 0.134503439 0.562522173 
-0.146506995 -0.898042858 1.21987987 0.219676137 0.838434219 0 -0.42384088 0.598628163 -0.678949118 
2.22507787 2.33746386 3.42434454 0.900761247 0.180248886 0 0.731688082 -0.449799955 0.511706173 
0.117283195 0.684989035 2.10489058 0.114706218 0.563846827 0 -0.942322195 0.0621345118 0.328120649 
2.47216654 2.99211788 2.92114449 0.156220049 0.162756532 0 0.899855554 -0.208067819 -0.38333115 
0.65312326 1.22848737 2.66773891 0.0755001158 0.521690309 0 -0.707732499 0.0147936381 0.693565488 
1.43096495 2.7228899 3.65568447 0.619942129 0.148565456 0 -0.660295248 -0.265119195 0.702411711 
2.3503077 2.3608489 3.11172557 0.220247328 0.193121731 0 0.943768382 -0.316665411 0.0941576362 
1.77071357 2.41026878 2.24554586 0.0660631582 0.254944742 0 0.518590569 0.158203989 -0.8400352 
1.13765442 0.410411954 2.9816885 0.482465893 0.362474233 0 -0.580258071 -0.124007381 0.799510062 
2.45072865 4.44894981 2.70219231 0.0136856288 0.0964586586 0 0.165938616 0.132138759 -0.977079988 
0.947429717 1.63472164 1.50905883 0.242913172 0.596052825 0 0.218513072 0.11983785 -0.967892051 
1.9028846 -0.413847893 2.25927806 0.420602918 0.858022869 0 -0.159272403 -0.184543908 -0.969429672 
0.210173026 1.41008282 1.76553643 0.917105079 0.530459285 0 -0.803962171 0.523239434 0.278650463 
-0.0902883038 -1.39682388 0.750417888 0.81986022 0.263588428 0 -0.196051806 0.200720534 -0.959694505 
0.57743901 0.413256288 2.66304398 0.548635244 0.414147079 0 -0.669903815 0.00697121024 0.742039144 
0.783008933 0.661878586 2.8382318 0.545898914 0.380375206 0 -0.513588369 0.0159625467 0.857589006 
0.050099235 0.679565668 0.822767437 0.0855257139 0.653092027 0 0.435298562 0.710490465 -0.552565098 
-0.186337516 0.519395351 0.79370451 0.62819016 0.899603426 0 -0.889624715 0.169891596 -0.423264325 
0.98560816 2.62491226 2.47051692 0.418644965 0.194584727 0 -0.678967118 0.564776838 -0.468239397 
0.997375607 2.8672924 2.81168509 0.380240798 0.178450838 0 -0.903014243 0.33491233 -0.2685045 
2.20020342 4.90053988 3.32465649 0.152059659 0.335888863 0 -0.110706583 0.223121434 -0.458392203 
2.07231092 -0.445948601 2.64997792 0.373901248 0.419825017 0 0.729244828 -0.150213704 0.667278826 
1.9328686 0.109289497 2.96118855 0.782328546 0.572776794 0 0.250221401 -0.552250028 0.793443561 
1.1035943 3.20933318 3.28743172 0.697266221 0.131505966 0 -0.948337197 0.0965884477 0.301358074 
0.304495007 0.0500391349 1.3848666 0.592490673 0.257286727 0 0.891252875 -0.245221004 -0.381098688 
3.02973628 4.34416437 4.11318064 0.804809809 0.046116963 0 0.892075479 -0.282166362 0.351136595 
0.105115928 -0.103308879 2.20910954 0.0788630471 0.613212466 0 -0.692299843 0.33926335 0.635131299 
0.11482279 -0.416184515 1.03394806 0.81683743 0.837834835 0 0.99830091 -0.0310165733 0.0472497046 
2.86971259 4.77917719 2.99769855 0.66042906 0.678023696 0 0.499661654 0.0130885206 -0.744162858 
1.71133375 0.638845861 2.07600355 0.945399821 0.713778496 0 -0.260356277 -0.208407775 -0.942441285 
1.93700266 -0.98211062 2.17677402 0.331034601 0.463906765 0 0.301600218 -0.29883188 -0.904658556 
0.436291277 -0.702655196 2.33977985 0.340634763 0.666308165 0 -0.857259154 0.205411971 0.470647991 
0.313377202 1.0668149 1.27277124 0.447785378 0.943013787 0 0.248502731 0.154665276 -0.954403877 
1.88952112 1.1534332 2.0800941 0.925820351 0.672802866 0 0.27219227 0.21264182 -0.938163877 
0.553408206 0.890483499 2.65572834 0.0671062768 0.543920994 0 -0.687762856 0.0958504379 0.718792439 
1.41257203 4.83303404 3.41383839 0.379249513 0.0397311896 0 -0.861623049 0.281833231 -0.421118319 
0.866518199 -0.468102604 2.13135147 0.362664998 0.9666816 0 0.292071849 -0.127774417 -0.944950938 
0.84782356 2.26310372 2.71371436 0.721210361 0.204927757 0 -0.984749317 0.00201517344 0.172626972 
1.13761902 1.54120219 1.61308253 0.589718699 0.518612981 0 0.521493673 -0.284892142 -0.803761363 
-0.122426003 -0.36334005 1.94349992 0.137449518 0.862882435 0 -0.91761142 0.0225681402 0.394239336 
1.5951606 3.87536073 2.69551706 0.47364974 0.0938992351 0 -0.491779029 0.40460822 -0.770998538 
1.79177153 4.15359783 2.71065784 0.498164684 0.0693369657 0 -0.376381427 0.369442731 -0.849242568 
2.11800742 -0.340817213 2.62917566 0.698523879 0.716405392 0 0.876146197 -0.186550796 0.444101602 
2.47549725 3.29911733 2.78768396 0.118668422 0.151360527 0 0.8169052 -0.245449021 -0.521759808 
1.69252753 2.89709163 3.88196397 0.587655187 0.130398244 0 -0.324050248 -0.284174055 0.902215481 
0.23342903 -1.49149728 1.9490124 0.671866775 0.914262235 0 -0.987285078 0.0980816334 0.0984300748 
1.64952183 -0.670292675 2.276196 0.530341983 0.703286827 0 -0.735553145 0.0884146541 -0.67096132 
2.0303061 4.11158323 2.63028169 0.655903339 0.356475979 0 -0.133204401 0.175203979 -0.975306988 
0.0627502054 -0.19891572 2.18719649 0.0792354122 0.619612277 0 -0.625000298 0.0781207606 0.776137233 
-0.208381981 -0.817717731 0.457732111 0.969017923 0.963228583 0 -0.902318001 -0.297091246 0.311444581 
0.0847670287 0.842410386 2.01946282 0.72414279 0.258517563 0 -0.914081931 -0.0641856566 0.399824113 
1.1873852 2.05071354 1.7398324 0.0623660833 0.789275169 0 0.19981423 0.601254344 -0.772721052 
1.00588655 2.53465366 3.12308836 0.686233342 0.177321941 0 -0.801374555 -0.0765228644 0.592489362 
1.86527729 2.81736088 2.35348558 0.721941352 0.426839143 0 0.355403244 0.112349808 -0.927772164 
-0.262225896 -0.609029233 0.619892955 0.111692205 0.995055676 0 -0.984682798 -0.0437847264 -0.167919368 
1.61512101 1.99477458 1.90120399 0.0688076019 0.749165237 0 0.53621155 0.384387851 -0.749224782 
-0.125631049 -0.586817265 0.392010897 0.0292356554 0.32904464 0 -0.0491740927 0.71813184 -0.694030404 
0.645201564 0.842027545 1.51144183 0.815912783 0.670856237 0 0.698903918 -0.165465936 -0.695400357 
1.46060026 1.47503448 1.86636519 0.240920961 0.974340081 0 0.562675476 -0.44386515 -0.697044492 
0.368709952 -1.86518037 1.59185636 0.682566941 0.78220582 0 -0.100123689 -0.0519181676 -0.993167877 
1.29924357 4.22312689 3.85607743 0.679252267 0.0538609326 0 -0.910847843 -0.0509878546 0.408982396 
1.9343338 -0.104958996 2.30617595 0.27977398 0.434430003 0 0.197029769 0.252455115 -0.94667697 
2.52461314 3.16260028 2.94602466 0.15046224 0.149743974 0 0.891434908 -0.238147736 -0.385254741 
2.1893754 0.646663845 2.96482277 0.698643386 0.647960782 0 0.512635231 -0.090965651 0.85266602 
0.754863024 -0.496288598 2.11481071 0.35896641 0.979177058 0 -0.0499498323 0.344857574 -0.936310172 
0.266633689 0.733476579 1.32140768 0.789385498 0.214534253 0 0.952923954 -0.294644952 0.0638614669 
1.57372057 1.33565307 3.24401593 0.51543802 0.516055942 0 0.0463081859 -0.245152444 0.966217399 
0.527150869 -0.504946411 2.23270559 0.0236994252 0.929087281 0 -0.684323788 0.522835612 -0.504955649 
0.690392375 -1.40212548 2.01335406 0.15629451 0.68738687 0 0.899912238 -0.283228099 -0.323599786 
1.23397148 3.86519217 3.14474773 0.37931785 0.107364535 0 -0.893079638 0.280396968 -0.350940228 
2.06925941 2.85054517 3.8716917 0.914579272 0.422223181 0 0.284789115 -0.372175604 0.882375062 
2.17926574 0.584904373 2.19735932 0.982252419 0.66836977 0 0.627611518 -0.0791952685 -0.773994207 
3.06892467 4.23134041 3.6055665 0.188476935 0.0364916101 0 0.889912307 -0.455577403 -0.0122851608 
1.82091701 1.22753501 2.0781765 0.916620851 0.675732195 0 0.224235743 0.169893444 -0.959359586 
2.89581084 3.89613581 3.60822082 0.207163066 0.061277125 0 0.89977473 -0.431203067 0.0656988323 
0.149567202 -1.20289207 1.26632762 0.0146528864 0.854222178 0 0.995050311 -0.0273149423 -0.0946419984 
2.3823173 0.695044518 2.67960477 0.334623545 0.355493933 0 0.98720336 -0.0619160347 0.139571652 
1.46300197 3.79458666 2.75545311 0.450695783 0.103606299 0 -0.615195513 0.394223005 -0.682526827 
2.58635068 3.14240289 3.15847087 0.182491884 0.138263837 0 0.927986383 -0.30574283 -0.212443367 
0.912923872 0.373515368 2.8584342 0.504628599 0.385011852 0 -0.218909264 -0.244859099 0.944288313 
1.66549015 1.80761313 3.37025046 0.977289855 0.359278262 0 -0.141549647 -0.383907288 0.911940694 
1.2566781 4.24252939 3.36030817 0.736562669 0.065661557 0 -0.930738568 0.207316577 -0.300090849 
2.49830294 4.88708353 3.01676083 0.599650741 0.706474364 0 0.140761226 0.174662352 -0.738876939 
2.12691045 -0.486136854 2.548033 0.358521461 0.427404583 0 0.954696655 -0.0513585843 0.292113185 
0.111993246 -0.300301015 1.00002408 0.815734267 0.860003769 0 0.981704175 0.0834635422 -0.170007378 
1.47937226 3.36570978 2.54110599 0.473540783 0.130046502 0 -0.44324711 0.351391375 -0.824462831 
1.31740487 0.46048075 3.09114051 0.46653223 0.343162149 0 -0.413780034 -0.217037335 0.883821905 
-0.162897736 -0.626626551 1.50371242 0.873792529 0.851319373 0 -0.423057586 0.571532428 -0.703065336 
0.113941498 -1.03698516 1.6183182 0.451577604 0.80130434 0 0.706283152 -0.54560554 0.450529575 
1.57959592 4.26827002 4.26080132 0.626452386 0.0385193005 0 -0.686206281 -0.282573938 0.669794083 
-0.212346762 -0.777137578 0.367024273 0.899860263 0.618579507 0 -0.889531016 0.246065006 -0.383732051 
1.878142 2.46403122 2.31610084 0.0792756826 0.244557753 0 0.505916417 0.0699368715 -0.85972333 
2.02739096 3.89461994 4.32384968 0.850434601 0.415852904 0 -0.138127074 -0.407258809 0.902348757 
1.55304503 4.71860695 4.38523149 0.638140023 0.00813971832 0 -0.832462966 -0.117608234 0.540633142 
0.897955537 2.50156808 2.8903904 0.712469578 0.186022848 0 -0.9636482 0.0508991703 0.261313796 
0.220267236 0.309631824 1.36210883 0.50949204 0.919213057 0 0.510842919 0.489775211 -0.70589149 
1.95717263 -0.526216924 2.24497724 0.435088456 0.861830711 0 0.326774985 0.270899892 -0.905145526 
2.25950003 2.49366045 3.51381278 0.900016546 0.167989165 0 0.674888611 -0.493185401 0.548607111 
1.32839835 4.84548521 3.70227909 0.331798017 0.043309249 0 -0.980832756 0.175409019 -0.0771389827 
2.21838593 3.02348876 2.55634546 0.0938298032 0.187970549 0 0.675524771 -0.167919978 -0.717691541 
-0.190561935 -1.4052701 1.0701648 0.752156615 0.868953943 0 -0.996249437 -0.0824232548 -0.0228530932 
1.8495574 3.20327234 2.39477825 0.690340877 0.409670681 0 0.0589130633 0.154059321 -0.986247301 
-0.0761476904 -0.445200771 1.57180309 0.890385032 0.838806927 0 -0.338870287 0.42689085 -0.838277459 
0.699761271 1.87068474 1.63354266 0.618160069 0.845574737 0 -0.424043924 0.720934749 -0.54804337 
1.14197052 3.02434254 3.37004328 0.678340316 0.140309751 0 -0.847746253 -0.0443643332 0.527136922 
2.54521799 3.66212583 4.05525398 0.877209961 0.0822235793 0 0.556537747 -0.531919241 0.637768745 
0.931551933 -0.814748466 2.42590261 0.319492042 0.544164121 0 0.637158275 -0.484182447 0.59922713 
0.233181104 0.523545384 2.36728358 0.0855922773 0.571594536 0 -0.866407037 0.123372696 0.482518494 
0.498720765 -0.682866573 2.42223549 0.325125635 0.665582597 0 -0.768882751 0.116153695 0.626091957 
1.19632661 -0.114518538 2.15141344 0.792598128 0.800153494 0 0.703467369 8.92272219e-05 -0.710243046 
0.313737839 -1.68560851 1.98981643 0.084923178 0.926019967 0 -0.668827653 -0.594753087 0.444871366 
2.04377103 4.77814722 4.00401115 0.169276774 0.407804072 0 0.13758117 0.835077524 0.0585132837 
1.31856644 -0.207200661 2.60256338 0.708300769 0.974279523 0 0.522120416 -0.725082278 0.446267068 
0.11255376 -1.33103335 1.2950263 0.0767731667 0.847242355 0 0.848088861 -0.425739408 0.312165678 
2.0243597 2.1840651 2.39828563 0.119841412 0.250945032 0 0.690862358 0.154903442 -0.70615983 
-0.302108496 -0.0595903359 1.22195899 0.998943686 0.872664571 0 -0.924758434 0.199670151 -0.323661298 
1.14919508 1.08543897 3.05058622 0.54525739 0.325152814 0 -0.468547404 -0.15597339 0.869356453 
0.825440109 -0.10992752 2.74637604 0.470900416 0.419994116 0 -0.279430032 -0.292531967 0.914045334 
0.871141493 -0.236267284 1.97027946 0.748406887 0.758623123 0 0.307055324 -0.352283806 -0.883793652 
0.905044675 1.89991856 2.85632753 0.740502656 0.510210752 0 -0.850608885 -0.0519487113 0.523002088 
1.29915786 4.20910597 3.22717381 0.381496251 0.0831212103 0 -0.861074388 0.28249529 -0.422260225 
2.29353023 2.44564986 3.42491841 0.89046526 0.174353361 0 0.816813052 -0.289747894 0.493621856 
0.752446771 1.19100404 1.53968692 0.576491356 0.579620659 0 0.213218093 -0.494122237 -0.842687309 
1.992926 2.77258205 3.85163188 0.91854465 0.409229189 0 0.147846013 -0.433237314 0.888738513 
-0.226543397 0.730652332 1.21888196 0.159038335 0.938016295 0 -0.952932596 0.251166284 0.150904328 
1.34031367 4.73425913 3.51863384 0.356660217 0.0489558727 0 -0.918674111 0.258249491 -0.298516035 
0.625542879 1.77990019 1.57466912 0.626424432 0.85125047 0 -0.276528627 0.685438573 -0.673407078 
1.21170127 3.76994467 3.12503171 0.377885282 0.114212386 0 -0.879453361 0.318266332 -0.353917867 
0.651113153 1.48649287 2.58457708 0.0917072147 0.506124854 0 -0.771631896 0.224670202 0.593719959 
-0.0883414671 0.680850148 1.44175816 0.135148898 0.922856688 0 -0.583798409 -0.476203144 0.657350421 
1.59651685 5.07466602 3.36069989 0.895533144 0.772429109 0 -0.620039582 0.379237205 -0.534687877 
2.30114746 2.35110378 2.74486661 0.1687233 0.214923322 0 0.922397852 -0.0566770397 -0.381957054 
2.36778569 3.87563205 4.28779888 0.909079909 0.0600810722 0 0.250199258 -0.511989653 0.82165581 
1.90735471 4.7493186 4.28484201 0.453627944 0.700148344 0 0.279733002 0.925222814 0.235104799 
0.248938411 -1.75567257 1.77289212 0.0919322073 0.903479695 0 -0.955575824 -0.145321131 0.254144013 
0.046258457 0.55784452 1.34184897 0.404079795 0.972570181 0 0.231159791 -0.823461354 0.515229523 
-0.132760316 -0.755292773 1.34191239 0.295556724 0.272645235 0 -0.377742171 0.756555438 -0.532962441 
1.17998683 3.35550213 2.82881713 0.405953676 0.141120195 0 -0.729229331 0.33744216 -0.594806075 
2.29909682 4.75364351 2.76939225 0.657211185 0.312420964 0 -0.0419997126 0.307291478 -0.950488448 
1.45216918 3.01630831 3.76308751 0.622480869 0.128128082 0 -0.65413326 -0.198951825 0.729645967 
2.83752251 4.6067152 3.72656059 0.0959039629 0.389794558 0 0.595966518 -0.182536438 -0.046191588 
0.0680672675 -0.597331226 2.09252715 0.385295272 0.946814537 0 -0.0681421012 -0.521953225 0.850049317 
0.713491023 0.588463306 2.78489542 0.547463477 0.390990138 0 -0.640582085 0.0616677739 0.764688313 
1.55271876 4.38404894 4.28207111 0.631856978 0.0311052017 0 -0.739202857 -0.25675416 0.622280598 
3.01350284 4.62455273 3.0500021 0.084964931 0.0441350341 0 0.724454165 -0.129886597 -0.676798046 
2.20661426 4.65881634 4.28371096 0.441406548 0.681840658 0 0.253387898 0.869911909 0.260316968 
2.05245471 3.67087698 2.52256083 0.691734433 0.376985103 0 0.0360718817 0.300599039 -0.952497125 
2.09803104 -0.604138613 2.34253931 0.335647821 0.44293943 0 0.839160919 0.0760586262 -0.538284421 
1.08323884 -0.489887625 2.53418803 0.318709075 0.515770793 0 0.602047861 -0.58963275 0.53699398 
2.40824986 3.18061018 3.84852886 0.890638947 0.116839722 0 0.52126205 -0.343522578 0.778850079 
0.95316869 2.16787696 2.95250034 0.688170016 0.203950733 0 -0.772989511 -0.0706666782 0.629915476 
0.694842339 1.33170688 2.69158578 0.0763872042 0.514677763 0 -0.598757029 0.0515780002 0.799034476 
0.863563716 2.38717747 2.45471311 0.403270602 0.213647962 0 -0.946549892 0.239817947 -0.213054314 
1.62947118 2.0791223 1.96676111 0.0587487668 0.74712038 0 0.51196605 0.522504687 -0.68163377 
0.621684551 1.60444033 2.50442648 0.684340417 0.545085013 0 -0.885040283 0.173110366 0.427956283 
0.534296751 1.12068176 1.35082805 0.433821023 0.916192889 0 0.502111197 -0.0323830172 -0.859202147 
2.16117406 1.59866655 2.37637711 0.255510986 0.492690653 0 0.916325033 0.16840747 -0.34444648 
-0.312545151 -0.489232808 0.794476688 0.0977919251 0.99003464 0 -0.989884734 -0.084588334 0.109000638 
1.40604401 1.90994954 3.30396557 0.612933636 0.207100585 0 -0.303685516 -0.285884619 0.908627927 
2.75704217 4.5745697 3.95279241 0.104217649 0.413301408 0 0.105852515 0.814096451 0.0202853009 
1.82747877 0.731150687 2.0517745 0.947245002 0.69837296 0 0.0508071557 -0.083410278 -0.994807124 
2.40929317 4.78946495 3.51521683 0.133895636 0.359998852 0 0.126391232 0.0344045535 -0.287019551 
2.36366105 1.00279212 2.437186 0.251980811 0.783053398 0 0.838658094 -0.0141316 -0.541330814 
1.87239182 4.78800774 4.17252207 0.185597882 0.423578531 0 0.267641336 0.920963943 0.215020955 
1.98042715 -0.851043999 2.46969366 0.363056332 0.446985066 0 0.777355671 -0.59960413 0.189221472 
1.42000377 1.04847288 3.15189028 0.51220119 0.304003239 0 -0.366656274 -0.102086611 0.924366474 
1.741485 -0.792084038 2.58256912 0.84567076 0.561815858 0 -0.140035361 -0.456507623 0.878575921 
0.251350284 -0.681587994 1.97582233 0.499657989 0.790394425 0 0.343451023 -0.517730534 0.783332705 
2.00737214 4.86987209 3.68130207 0.171161354 0.371919513 0 -0.106620565 0.673813164 -0.235326096 
1.83666551 4.76612854 2.9263165 0.483556658 0.0290824156 0 -0.487474471 0.351994425 -0.798758566 
1.89570022 -0.635210812 2.18146133 0.4278844 0.87112391 0 0.0924754292 0.451925755 -0.886872768 
-0.214968711 -0.567720592 1.84956825 0.156227544 0.87240535 0 -0.802407384 0.378580242 0.460832894 
0.791677296 -1.09476125 2.36773777 0.325172752 0.566614389 0 0.535623789 -0.405023754 0.740364492 
0.779601157 2.06873012 1.87838113 0.594768286 0.849797487 0 -0.526657701 0.800192714 -0.286780179 
2.98516583 4.22619152 4.09140205 0.813171268 0.0527079739 0 0.824263573 -0.47701782 0.302963048 
2.18671846 0.156199455 2.40167236 0.30364418 0.405757934 0 0.71272248 -0.100162596 -0.694166362 
0.293551743 -0.264968455 2.26453924 0.420141935 0.91601336 0 0.0317154676 -0.419163048 0.907228053 
0.90472573 -0.252703339 2.73157787 0.366140366 0.49214378 0 -0.195522547 -0.358819306 0.912290812 
1.60884047 0.923545659 3.19382811 0.502495289 0.542749166 0 -0.142869264 -0.00791803654 0.989549518 
1.08535612 1.33161414 1.66549897 0.59796226 0.538449407 0 0.627644181 -0.431978077 -0.64680773 
0.95570451 2.23101377 2.01630378 0.0233310871 0.805198252 0 -0.433649451 0.813313246 -0.385239422 
0.52635479 0.32342723 2.63130498 0.545807481 0.423493505 0 -0.49497205 -0.0770145804 0.864764512 
0.801711321 1.55081725 2.77954984 0.670894384 0.520060778 0 -0.818784893 0.0438037999 0.568689466 
0.669983625 -1.44159758 2.11484957 0.309764504 0.601544619 0 0.753149986 -0.595466554 0.277210295 
0.595695019 0.0948081687 1.75442481 0.795659184 0.726868033 0 0.457207799 -0.281368524 -0.843369067 
0.14604257 1.33943105 1.56207085 0.936389565 0.518948793 0 -0.745340705 0.653726816 -0.121339247 
1.3617748 1.91484308 1.73113489 0.184748471 0.564787745 0 0.417601466 0.267558277 -0.867781997 
0.828659952 1.80404675 2.76544023 0.722147346 0.519389033 0 -0.820707738 0.0337826237 0.570019364 
2.39415336 0.915048122 2.66602731 0.326185673 0.343464524 0 0.988351703 0.00797750894 0.151529178 
0.103948817 -0.9187271 1.29169393 0.915875971 0.880146444 0 0.592197299 0.3694911 -0.715447426 
1.65529144 3.83168602 2.63567495 0.48723492 0.0945371687 0 -0.431283861 0.373549223 -0.821153462 
3.12575746 4.54085732 3.64022589 0.593326688 0.638133705 0 0.869859278 -0.299167961 -0.0248136409 
1.72201359 1.42193305 3.24582505 0.49619785 0.506921232 0 0.204933599 -0.291386366 0.933914781 
1.89640021 1.36525071 3.17964292 0.468958974 0.50693202 0 0.323117793 -0.175902545 0.92732358 
0.196953595 0.646942616 1.3859905 0.410408676 0.957026124 0 0.585133612 -0.738563716 0.326019704 
2.4237299 3.76346183 2.64187241 0.751978755 0.352784276 0 0.493511975 -0.00775568374 -0.866127431 
-0.0969436318 -0.651639581 1.99100637 0.549389839 0.7604177 0 -0.614913523 -0.246423215 0.747376382 
0.259642184 -0.738939047 1.67695618 0.424466968 0.781835198 0 0.922221303 0.021897072 -0.385579884 
1.09355831 1.40897226 3.07824802 0.581282973 0.31147632 0 -0.433151186 -0.228710502 0.869079947 
0.750043452 -0.970815718 2.04301047 0.145142406 0.658852279 0 0.387348056 -0.149709687 -0.908781171 
2.0711298 -0.765090466 2.35340691 0.3446787 0.44788152 0 0.892031014 -0.446547985 -0.0501741283 
2.11820555 1.00094676 3.03725696 0.426752627 0.525723398 0 0.524999201 -0.160074621 0.834859312 
0.535640478 1.28103256 2.51078057 0.0932095274 0.520550728 0 -0.80382812 0.241872981 0.542605639 
1.23439801 0.877260327 2.00792289 0.644988239 0.555035353 0 0.469440311 -0.330677778 -0.818602204 
1.55417037 0.54527694 3.1703496 0.502664447 0.568517089 0 -0.161829114 -0.250301421 0.954375148 
1.93080544 4.5491662 2.79084992 0.508837879 0.0394916534 0 -0.396199524 0.286699712 -0.872032166 
0.667636156 -0.696212113 2.54369235 0.369222045 0.531400204 0 -0.354109287 -0.253213346 0.899319768 
0.581219316 1.89440024 2.04001498 0.101404995 0.776540756 0 -0.795908868 0.581868589 0.160505578 
1.13282657 2.51850653 3.256989 0.665246606 0.173746198 0 -0.701445758 -0.241967231 0.669281244 
2.27367258 3.15858507 3.9241581 0.911780834 0.114461325 0 0.444470525 -0.41054526 0.795876503 
0.159181058 -1.39880824 1.0421437 0.0259368699 0.833949983 0 0.999179006 -0.0317764804 -0.0213353485 
0.729098201 1.2600354 2.74790645 0.0682126805 0.518412411 0 -0.793150365 0.318102747 0.518569887 
2.07541537 3.8266685 2.56356716 0.684477925 0.368186116 0 0.00622081757 0.223737612 -0.974398017 
0.123743229 -0.907543242 1.79850841 0.522500217 0.79625231 0 0.424514681 -0.750405908 0.50637871 
2.00966859 2.37768197 3.63039184 0.944091737 0.414894819 0 0.236279517 -0.502895057 0.831241012 
0.96430403 -0.169357672 1.98066676 0.738644004 0.755503774 0 0.487209529 -0.263267428 -0.831927359 
1.5400914 2.13489652 3.44985366 0.599286675 0.188699305 0 -0.379400194 -0.416063219 0.826054335 
0.644298553 1.96549487 2.029387 0.0973850489 0.764967322 0 -0.693317175 0.702602506 0.15726763 
1.99765849 0.946274936 3.0922544 0.444460154 0.532175362 0 0.448145598 -0.125907108 0.884821117 
1.71307623 2.68898988 3.80973887 0.582227051 0.144546822 0 -0.233376831 -0.357956648 0.904075503 
-0.0493299365 0.986716032 1.56522107 0.96660912 0.547526836 0 -0.873747706 0.221292675 0.432453036 
2.34690762 0.855804205 2.82599425 0.3561382 0.337804079 0 0.85912025 -0.0880440325 0.503693044 
-0.0303667933 -0.150293484 1.89145386 0.583522081 0.911028147 0 -0.862922311 0.504535794 0.0281943772 
1.87093806 -0.728380442 2.61681771 0.842990518 0.582034409 0 0.230220288 -0.423657 0.87593627 
1.75368345 3.04065752 3.95266771 0.90089035 0.367993146 0 -0.310438424 -0.294399232 0.903513908 
0.764020503 1.41117632 1.44735622 0.563411176 0.563243151 0 0.330253601 -0.0961995423 -0.938352227 
