ply
format ascii 1.0
comment created by gply, a Houdini tool.
comment converted from .[b]geo
comment for more information about Houdini, try:
comment www.sidefx.com
element vertex 449
property float x
property float y
property float z
property float uv1
property float uv2
property float uv3
property float nx
property float ny
property float nz
element face 0
property list uchar int vertex_indices
end_header
-0.314296007 0.027005665 0.0237109773 0.271318942 0.179682344 0 0.108783759 -0.993302941 -0.0342881382 
-0.433149636 0.033869639 0.0145020867 0.0396579765 0.281185746 0 -0.0138874175 0.999860108 0.00327679445 
-0.239091188 0.0670501217 0.00129899522 0.337514073 0.484127581 0 -0.143164217 0.989273787 -0.0138082774 
-0.0742628053 0.0791153759 0.0340616368 0.744552493 0.120207071 0 -0.178983614 0.982186854 0.0569674745 
-0.207544893 0.0511910282 -0.0402893201 0.47276634 1.00037718 0 -0.0333006643 0.00352750137 -0.999433994 
-0.310671449 0.0422316566 0.00729506742 0.270394892 0.402159661 0 -0.114033118 0.993339837 0.0128272995 
-0.383539528 0.0211342685 -0.0205478184 0.135062754 0.795734406 0 0.0575039685 -0.997962832 0.0175645538 
-0.425320119 0.01953521 -0.0220152065 0.0505461805 0.83029592 0 0.0177660342 -0.999729037 0.00625889469 
-0.441441476 0.0193933528 -0.0309834797 0.0102633378 0.974501014 0 -0.265130669 -0.290068686 -0.706326127 
-0.123461217 0.0705290139 0.0265022684 0.650714099 0.194087252 0 -0.173657835 0.983697116 0.0459683277 
-0.00756144291 0.0742227957 0.0281382594 0.880848944 0.198650539 0 0.00436070655 -1 -0.000877434271 
-0.343957633 0.0193844326 -0.0183469038 0.215242162 0.245512471 0 -0.000497546745 0.999999821 -0.000406805368 
-0.250525326 0.05001783 0.0209474955 0.400229841 0.232497871 0 -0.140133858 0.989341557 0.0351896733 
-0.132604003 0.0194870979 0.0174921211 0.636447906 0.703701675 0 -0.000653448631 0.99999994 0.0020640702 
0.0347723253 0.0114683267 -0.0241873469 0.966612697 0.241588205 0 0.638089061 -0.758771598 0.128490508 
-0.348906189 0.0384748317 -0.00514806667 0.185119152 0.571669281 0 -0.0883237049 0.995880425 -0.00793308765 
-0.22691761 0.0527452826 -0.0333858132 0.43933031 0.919650316 0 -0.149289504 0.987139046 -0.0564696826 
-0.313071191 0.0269874539 0.02778247 0.270951569 0.124600291 0 0.108898781 -0.993116677 -0.03920215 
-0.157693386 0.049333442 -0.037830513 0.574737787 0.950666189 0 0.165649727 -0.984346747 0.0589697435 
-0.295823753 0.0296014342 0.000659252924 0.243023112 0.491675079 0 0.120552488 -0.992624044 -0.0014019307 
-0.257660925 0.0658723488 0.0167720504 0.387982547 0.28478837 0 -0.161049545 0.985934198 0.0263257883 
-0.385322779 0.0541793928 0.014463149 0.134900421 0.291914493 0 0.0164935756 0.998600125 -0.00506450236 
-0.140032664 0.0677854046 0.0226056911 0.619624138 0.23591949 0 -0.170866653 0.984484792 0.039447166 
-0.158284426 0.0649444237 0.025269432 0.581888914 0.20049715 0 0.167739943 -0.984784126 -0.0448965915 
-0.0150582632 0.0741758868 0.0390846469 0.859659612 0.0802347958 0 0.0083561046 -0.999944031 -0.00169281906 
-0.253347903 0.0350766964 0.0200604722 0.395088434 0.243254989 0 0.138075203 -0.98971802 -0.0333165675 
-0.250290394 0.0350542255 0.0305562504 0.394661456 0.108805597 0 0.138652042 -0.98890394 -0.0499618091 
-0.008023303 0.0942111015 -0.0195919909 0 0 0 0.0249236207 -0.304585636 0.902005374 
-0.187845141 0.0602027252 -0.00295403623 0.432617784 0.536309063 0 -0.159977511 0.987044215 -0.0070171738 
-0.443959832 0.0049557765 0.0253770649 0.0103727728 0.888615429 0 -0.243330181 -0.909957111 0.106718786 
-0.0440703779 0.0196174197 0.00408604415 0.704311609 0.544358134 0 -0.00353078684 1 0.00224275747 
-0.130740047 0.0916751325 -0.036327485 0.629934132 0.923405945 0 -0.236958116 0.96748966 -0.0878418088 
-0.236895621 0.0522888489 -0.00154165365 0.342200816 0.519935608 0 -0.146549791 0.989122629 -0.00360798859 
-0.146238491 0.00479872385 -0.0203180239 0.608222961 0.261052191 0 -0.000513945241 -0.99999994 -0.00149359461 
-0.17396526 0.061902944 -0.0261506643 0.55010581 0.813964844 0 -0.163009942 0.985488176 -0.0457115397 
-0.0380291156 0.0719038993 -0.00944493804 0.782250643 0.602380037 0 0.178428054 -0.983841181 0.0171911307 
0.0396058857 0.0769343153 0.0173326731 0.978549719 0.314821869 0 0.661025286 0.744023204 -0.09659224 
-0.163229451 0.0851057097 -0.0177170504 0.575449228 0.71046412 0 -0.224390909 0.973895788 -0.0117490357 
-0.142415151 0.0524089299 0.0292734839 0.611321449 0.156886488 0 0.16941379 -0.984221578 -0.0508952364 
-0.453404695 0.0161131974 0.01257197 0 0.693585038 0 -0.976719499 0.00621884223 0.213768736 
-0.00688543962 0.100433506 -0.0464520194 0.850648999 1.00222397 0 0.0255833939 0.0134740975 -0.999482632 
0.0477743186 0.034450382 0.0372813977 0.985787272 0.89833051 0 -0.654635847 0.728271246 0.202546984 
0.0497857817 0.0384817794 -0.0283213574 0.994632363 0.19742322 0 -0.662731171 0.73235929 -0.156244993 
-0.401253581 0.0347158238 -0.0158100445 0.102658868 0.731181383 0 -0.0428784303 0.998838663 -0.0103607643 
-0.233198375 0.0685128868 -0.010170917 0.429418623 0.627833962 0 -0.154210359 0.96490258 0.204722553 
-0.243359342 0.00484008249 0.000121861442 0.328498989 0.502052188 0 -0.00059999997 -0.99999994 9.0974645e-06 
-0.301001608 0.00791483652 0.0371996239 0.242791131 1.00063479 0 -0.0323513001 -0.00175892015 0.999499917 
-0.0885511488 0.00473707542 -0.00210874435 0.600529432 0.477272034 0 -0.00114443747 -0.999999881 -0.000610450981 
-0.11758595 0.0803199187 -0.0432435125 0.662730098 1.0017643 0 -0.0327114575 -0.000667015731 -0.999499857 
-0.116540231 0.019455744 -0.0398314409 0.702031434 0.0313915983 0 -0.000141124736 0.999990225 -0.0048185843 
-0.432214558 0.0193371847 0.023164127 0.0358537324 0.850216806 0 -0.00101360166 0.999999881 0.000387586566 
-0.162268698 0.0496427715 0.0142466584 0.577327132 0.330877364 0 0.164973974 -0.985916436 -0.0252522081 
-0.19553861 0.0740605816 -0.00271260669 0.41921708 0.533562005 0 -0.158898354 0.984864175 0.0506292656 
-0.131686211 0.0536190905 -0.0396004543 0.625535548 0.962845325 0 0.171551779 -0.983477533 0.0574291795 
-0.0983171165 0.074963212 -0.0296033788 0.699182272 0.835521817 0 -0.176342607 0.982993245 -0.0504451916 
-0.34965983 0.0237607621 -0.0151980398 0.206187993 0.711614013 0 0.0859513655 -0.995927811 0.0183975566 
-0.252392411 0.0496145189 0.024693992 0.394365489 0.183881477 0 -0.139102101 0.9892627 0.0413545743 
-0.0599521659 0.0818339661 -0.0322769806 0.774277985 0.855835676 0 -0.180413038 0.982106924 -0.0534472652 
0.00840409566 0.0742905512 0.0233106539 0.914631426 0.250720859 0 0.00383974658 -0.999966383 0.00473379204 
-0.204479292 0.0756938234 -0.0219914578 0.491410911 0.770322502 0 -0.200982898 0.978061795 -0.0505829789 
-0.127848163 0.0551199801 -0.0246932525 0.642882645 0.785881281 0 0.172267735 -0.984107375 0.0427503362 
0.0208908468 0.0193692725 0.0205140319 0.940445125 0.718929589 0 0.00454790937 0.999954939 0.00585708907 
-0.135242924 0.0688471943 0.0145754786 0.630527496 0.330564976 0 -0.172006279 0.984775782 0.026015684 
-0.0992737561 0.0901536345 -0.0438380167 0.710505188 1.00210702 0 -0.0338813253 0.0045374753 -0.999441743 
-0.279293269 0.0312630832 0.0258939229 0.33987385 0.160637617 0 0.1266433 -0.990956903 -0.0412010886 
-0.0244275723 0.073577553 0.0331875719 0.844689012 0.143270522 0 0.153022647 -0.98642385 -0.0442852415 
-0.0991250053 0.0194646232 -0.0323560908 0.69583416 0.13071914 0 -4.64255427e-05 0.999999881 -0.0011655573 
-0.257271022 0.0348457322 -0.00657479744 0.357519716 0.584454358 0 0.136980727 -0.990346193 0.0131117851 
-0.30827269 0.0272621829 0.0331198908 0.27626428 0.0533870757 0 0.111085773 -0.99318409 -0.0296609569 
-0.362655342 0.0367115177 -0.0239568017 0.174505755 0.83840251 0 -0.0768041983 0.996700883 -0.0265670642 
-0.419209063 0.0193462353 0.0146622378 0.0670720935 0.718236625 0 -0.000802297087 0.999999881 0.000222078699 
-0.176008627 0.0621192157 -0.00856636185 0.524803042 0.602888703 0 -0.162737727 0.986485481 -0.0172856599 
-0.108622052 0.0738701001 0.00424486678 0.574132979 0.452301055 0 -0.174962029 0.984500587 0.00987698138 
-0.301796705 0.0587558672 0.00543733547 0.268888384 0.42775327 0 -0.105497487 0.993768752 -0.0232178736 
0.011244907 0.099495396 0.0442690179 0.699668467 0.00461141206 0 0.445559949 0.0279740281 0.889751554 
-0.364764363 0.0537420474 0.030858079 0.164754778 0.0621327683 0 -0.017258713 0.999250293 0.0222841259 
-0.138319269 0.019455513 0.0328600705 0.617128134 0.886115074 0 -0.000147655388 0.999999881 0.000673788833 
-0.103249796 0.059944395 0.0140980082 0.692879081 0.340049475 0 0.174742892 -0.984273076 -0.0245648213 
-0.323193491 0.0569387153 0.00892013125 0.254388601 0.378926218 0 -0.0823669136 0.995109737 -0.0332811661 
-0.264684767 0.0483019017 0.0121754324 0.375708163 0.342863292 0 -0.134630725 0.990518093 0.0207037479 
-0.235371798 0.0692003071 -0.0222836863 0.429684281 0.781030059 0 -0.180942997 0.982091188 -0.0481094159 
-0.0123178726 0.0857961103 -0.0079732649 0.341461986 0.564951122 0 0.839342356 0.00122570386 0.54352349 
-0.00972592551 0.0125776362 -0.0461382717 0.896269798 -0.00117847708 0 -0.0240308978 -0.000322837092 -0.999690533 
-0.41211012 0.00492708385 -0.00156831869 0.068332985 0.476950377 0 -0.00101708993 -0.999999881 -4.62899116e-05 
-0.416591138 0.00493585831 -0.0283891801 0.0626765937 0.0764340609 0 -0.00125698536 -0.999999881 -0.00199576025 
-0.0924716443 0.0768199861 0.0227992013 0.714152157 0.243210167 0 0.178822353 -0.983009815 -0.040978007 
-0.106222823 0.00908721704 -0.0433959775 0.824185014 -0.00215512654 0 -0.0305327699 0.00294425874 -0.999500036 
-0.0259244405 0.0881417766 -0.03219359 0.842287481 0.846301675 0 -0.174893647 0.983172715 -0.0491801053 
0.0172126889 0.0193994902 0.0184726138 0.93379283 0.696913302 0 0.00450054882 0.999896586 0.0124193681 
-0.385924757 0.004917413 0.0307470746 0.122204229 0.945702732 0 -0.000776734902 -0.999999881 0.00259315223 
-0.0426949523 0.00482771406 0.0405457951 0.810179591 0.948730588 0 0.000800287933 -0.999999166 0.00146794529 
0.035139244 0.012386132 0.020468751 0.968695045 0.718683243 0 0.643872082 -0.756778181 -0.109961107 
-0.378188074 0.0540553853 0.0238576718 0.143513903 0.15801546 0 0.0074607823 0.998771429 -0.00366762094 
-0.351926178 0.0381703861 -0.00576231768 0.184290245 0.58039403 0 -0.0862838626 0.996064484 -0.00850549713 
0.0428014174 0.0344719328 -0.0138175031 0.985835671 0.352377117 0 -0.666364789 0.74126786 -0.0801317841 
-0.0828494653 0.0783267766 0.0156736802 0.73394084 0.324795783 0 -0.177765101 0.983726025 0.0267851986 
0.0165361017 0.0888971686 -0.00609424571 0.920976162 0.563836455 0 0.0236760881 0.999724984 -0.0031202985 
-0.13468942 0.0542376079 -0.0151841175 0.631927907 0.676463723 0 0.171325147 -0.984830916 0.0267659854 
-0.0757531449 0.106602378 0.0259777363 0.746041894 0.210856944 0 -0.248328283 0.96680361 0.060114231 
-0.207374632 0.0563124083 -0.0249979421 0.484081268 0.808225036 0 -0.155318156 0.986850142 -0.0437333547 
-0.330971807 0.0402105004 0.00842348579 0.237186849 0.38487792 0 -0.100284338 0.994656205 0.0127927912 
-0.337895215 0.0193862207 -0.0249520615 0.223321006 0.155148998 0 -0.000471882522 0.999999821 -0.000467979611 
-0.396508843 0.0249114875 -0.0340858512 0.0915032476 0.999542236 0 -0.0326520875 -0.00413083052 -0.999456406 
-0.394642264 0.0290742312 0.0341516919 0.0956081226 0.000446267426 0 -0.0328816734 0.00157453364 0.999466717 
-0.274441063 0.0469695665 -0.011324605 0.355754435 0.647367418 0 -0.130541146 0.991106451 -0.0191565137 
-0.280798256 0.0114902174 0.0378282443 0.360013187 1.00094116 0 -0.0322641656 4.68435974e-05 0.999500036 
-0.0756107047 0.105340168 0.0415431634 0.736572206 0.0333542377 0 -0.249670386 0.960429847 0.121993273 
-0.362081349 0.0225925073 -0.0127359005 0.18279624 0.679311395 0 0.0778303295 -0.996781826 0.014495925 
-0.16446279 0.048384212 -0.0347398706 0.563518226 0.915288925 0 0.164254382 -0.984607577 0.0583439916 
-0.171567068 0.0629257187 0.0208587646 0.557519913 0.250364006 0 0.163994879 -0.985619307 -0.0387765951 
-0.233745784 0.0521924607 0.0250784215 0.431373775 0.183943719 0 -0.14701435 0.988111615 0.0431839712 
-0.208549947 0.041478008 0.0252948496 0.481556952 0.187789083 0 0.154215232 -0.987053752 -0.0439683869 
-0.0210259315 0.0740989596 -0.00284631713 0.719744265 0.530883431 0 -0.0106467437 -0.999944746 -0.00133444159 
-0.0597925819 0.0821761787 0.0257464666 0.778026223 0.216621637 0 -0.18030788 0.982652009 0.042485442 
-0.166996628 0.0485136025 0.0241612699 0.565094948 0.211656779 0 0.1637633 -0.985559225 -0.0419670083 
-0.162774563 0.0597082563 -0.0417560562 0.565625429 1.00081277 0 -0.0335362479 0.00475573307 -0.999412835 
0.00290043093 0.0888519883 -0.0267159026 0.90236342 0.785906911 0 0.0039404952 1 -0.000458287657 
-0.302460194 0.0279288646 -0.0306169223 0.290028483 0.910237372 0 0.115485586 -0.992403805 0.0409293137 
-0.258906394 0.0491334647 0.0105795506 0.381929398 0.364188075 0 -0.137140185 0.99022305 0.0187398344 
-0.303760499 0.00487601059 0.0249939449 0.291518152 0.835061848 0 -0.000448582723 -0.999999762 0.000705881626 
-0.0901537761 0.0614841618 0.0340956636 0.712754607 0.115287721 0 0.17653057 -0.982634544 -0.0571400747 
-0.0321520232 0.0196281876 -0.000772840693 0.688997149 0.492778003 0 -0.0022080713 0.999999881 -0.000461601943 
-0.215376422 0.0405633897 0.0199693516 0.470836312 0.252389461 0 0.152610317 -0.987680078 -0.034661755 
-0.348199248 0.0236050487 -0.0256518554 0.202217162 0.857637167 0 0.0853435397 -0.995726883 0.0303808302 
0.053510461 0.0665140748 0.0323437229 0.999998212 0.154558674 0 0.964483261 0.0250974037 -0.262389123 
-0.188813671 0.0451485515 -0.0160746835 0.525670767 0.694919944 0 0.158827931 -0.98684597 0.0280691646 
-0.164355874 0.0643230677 0.0143423248 0.573851585 0.329534799 0 0.166206062 -0.985774279 -0.0218442995 
-0.106602252 0.0984346867 -0.0292961765 0.6828053 0.834003448 0 -0.243915856 0.967236102 -0.0698804259 
-0.0781255215 0.0792638361 0.0125949699 0.734678209 0.35980916 0 -0.178248271 0.983748734 0.0222797431 
-0.13390559 0.069226943 -0.00744101871 0.58326292 0.586651325 0 -0.172351494 0.984912574 -0.0155299157 
-0.0334241167 0.0865586922 0.035651926 0.825210929 0.113868982 0 -0.180282041 0.981971622 0.0566582792 
-0.0445510522 0.00469407625 0.00838475768 0.769496083 0.589766979 0 -0.00190569495 -0.999999881 0.00380027364 
-0.306673259 0.0581182204 0.00595196942 0.265466541 0.420516551 0 -0.102495939 0.994401157 -0.022102071 
0.00442805002 0.0820264295 0.046654705 0.893362641 -0.00124520715 0 -0.00511965249 0.000235039639 0.999999881 
-0.320233524 0.05693518 0.0279694721 0.256482899 0.119630828 0 -0.0881718844 0.994511306 0.0332436934 
-0.286024302 0.0308674593 0.00837106258 0.321086943 0.390096188 0 0.124753833 -0.991962492 -0.014960303 
-0.0277145989 0.0892064944 0.00186612154 0.593530476 0.49129492 0 0.200110614 -0.979709506 -0.00795228034 
-0.397181273 0.0274130255 0.0340707935 0.0924686715 0.000413338072 0 -0.0328011625 -0.000271998753 0.99949944 
-0.140827924 0.0795238242 0.0424662307 0.608012438 -0.00138210959 0 -0.0342116579 0.00619246392 0.999409437 
-0.197893336 0.0588649511 -0.0106337247 0.498196095 0.629838109 0 0.156281039 -0.987450242 0.0183973964 
-0.200940892 0.0431249477 0.0157752745 0.501646817 0.306835234 0 0.156033784 -0.987318218 -0.0275819264 
-0.0394135565 0.0856131166 0.0327086113 0.815050185 0.144676194 0 -0.180277169 0.982215047 0.0525077358 
-0.349358201 0.0122685097 -0.0356254205 0.190107033 -0.00049731374 0 -0.0326469243 -1.93314236e-06 -0.999499559 
-0.188809469 0.0446365289 -0.0285658054 0.519054711 0.847295523 0 0.158721462 -0.986025572 0.0496896878 
-0.0749033093 0.0648417547 0.0218130145 0.749705613 0.257412553 0 0.177824229 -0.983405888 -0.036188256 
-0.142769814 0.0831000507 -0.00453317957 0.523821831 0.553486526 0 -0.173053488 0.97347486 0.135895893 
-0.332974225 0.0303946994 -0.0361739285 0.216787696 0.999492824 0 -0.0325591043 -0.00271840906 -0.999499917 
-0.406030208 0.0224835835 -0.0337671749 0.0733811334 0.999591589 0 -0.0326215997 -0.00707887672 -0.999404252 
-0.24107191 0.0464362428 0.0391897857 0.405038506 -0.00010340134 0 -0.033289209 0.00370649784 0.999430895 
-0.158229589 0.0194784589 -0.0136101749 0.584169328 0.338855118 0 -0.000622304797 0.999999881 -0.00166003476 
-0.429276198 0.05682512 0.00129588984 0.0388873369 0.480630457 0 0.107744977 0.993747532 -0.00313611701 
-0.331840485 0.00889596622 0.0361946374 0.181165069 1.0004735 0 -0.0325141661 -0.00192406075 0.999499917 
0.0484701805 0.070735462 0.0467948727 0.980377316 1.09828443e-05 0 0.00256053358 0.00205969531 0.99999994 
-0.289853096 0.0163084846 0.0375641361 0.278035522 1.00072718 0 -0.0322977901 0.00144777121 0.999495506 
-0.424274176 0.0424593091 -0.0248408839 0.0503447205 0.872729719 0 -0.113884255 -0.991705418 -0.0484705679 
-0.118404664 0.0195080582 0.010632352 0.648259878 0.622150183 0 -0.000755628222 0.999999881 0.00245136372 
-0.131345317 0.0541875288 0.030912187 0.632432342 0.140574008 0 0.171963185 -0.983650208 -0.0536409654 
0.0114556961 0.011183464 0.04655293 0.919021487 1.00065756 0 -0.0162055083 0.000420445431 0.999816358 
0.0288357157 0.071658276 -0.0167295784 0.95734328 0.678734779 0 -0.57216996 -0.81197679 -0.0810288191 
-0.454721421 0.0260244776 0.00418265723 0 0.43559438 0 -0.995479286 0.000418155629 0.0919411257 
-0.275271565 0.0471080542 0.0261946078 0.347731113 0.157912478 0 0.117393054 -0.992068946 -0.0382955447 
0.00628067972 0.0131299021 -0.0128399888 0.927585125 0.563842952 0 0.438985199 0 -0.897248626 
-0.0310353786 0.0731545687 0.0110736219 0.809041619 0.380990416 0 0.178263545 -0.983816862 -0.0190279316 
-0.353264779 0.0235007685 -0.0100248177 0.199328005 0.639917254 0 0.084098421 -0.996223688 0.0126120262 
-0.0136752082 0.104220055 -0.0301579032 0.85086143 0.823388934 0 0.00546689751 0.999809444 0.0126862414 
0.00956625957 0.0961156115 -0.0448876917 0.739996493 0.871855199 0 0.267680705 -0.000784911797 -0.963331103 
-0.317817956 0.0290064644 -0.0366643555 0.242986202 0.999503136 0 -0.03204678 -0.00717752241 -0.999499977 
-0.229432374 0.0497922264 -0.0395665765 0.428545624 1.00019372 0 -0.0345654786 0.0122468509 -0.999158382 
-0.18654564 0.0600314289 -0.0202344898 0.528154075 0.745102942 0 -0.160158157 0.986398399 -0.0353211127 
-0.415421903 0.052356191 -0.0333388075 0.0599955879 0.999326825 0 -0.0454477817 0.0378979929 -0.99773705 
-0.329614013 0.0402630232 -0.0136605892 0.246955246 0.686670959 0 -0.100684226 0.994505763 -0.0188759118 
-0.400711507 0.0203751791 0.00982194208 0.106280059 0.356624275 0 0.0435486138 -0.99885875 -0.00683616195 
-0.419749051 0.0196048934 0.0217744783 0.0618588552 0.175178766 0 0.0230473373 -0.999605477 -0.00795295928 
-0.306344837 0.0422155485 0.0268050488 0.285142869 0.140099257 0 -0.114654876 0.992548823 0.0401565358 
-0.426393449 0.0193429627 -0.00613992708 0.0517166257 0.408076048 0 -0.000847743941 0.999999881 -0.000125551014 
-0.232414931 0.0194334928 -0.0214511789 0.435993999 0.229822338 0 -0.000453407527 0.999999881 -0.00131136959 
-0.00498272246 0.0830505937 -0.0466065444 0.861912429 1.00196624 0 -0.00517842965 0.00147039699 -0.99999994 
0.0501944982 0.0360398032 -0.0157369524 1 0.331870168 0 0.990995646 0.00169961667 0.133055747 
-0.0877454877 0.0615907274 -0.0393998586 0.713864446 0.94520402 0 0.176872492 -0.982249141 0.0623775944 
-0.126964718 0.0692107454 -0.0380236991 0.636239946 0.942276597 0 -0.173639104 0.982538581 -0.0660160109 
-0.426165849 0.0565696098 0.0104330694 0.0557242073 0.343841493 0 0.102919184 0.994104505 -0.0162368882 
-0.165678144 0.00480559608 -0.0182779562 0.570305347 0.281749517 0 -0.000548642478 -0.999999881 -0.00141386956 
-0.0697297528 0.0806233361 -0.0188305043 0.761232138 0.708568931 0 -0.179180622 0.983332813 -0.0313371792 
0.0139708435 0.0194512494 0.0165360309 0.927843213 0.67569679 0 0.00623800652 0.999841273 0.0161736775 
-0.0730887651 0.0671797097 0.044696752 0.738616407 -0.00164909009 0 -0.0316003524 -0.00653520459 0.999500036 
-0.438989878 0.0194165539 0.00410103705 0.0266833119 0.437895358 0 0.00867595803 -0.999949455 -0.000718302093 
0.0374600478 0.0141321803 -0.0223104712 0.972657859 0.26164031 0 0.651277125 -0.748769701 0.121057838 
-0.05366854 0.0838113651 0.0086888168 0.743233383 0.405283779 0 -0.179794818 0.983559251 0.0167019721 
-0.392965525 0.020773761 0.0100342231 0.121834561 0.354609996 0 0.0507656112 -0.99846828 -0.00801972859 
-0.0280995443 0.0737905428 0.00274753245 0.689120412 0.47140789 0 0.130904362 -0.990575552 -0.00423294213 
0.0159391481 0.0888028517 -0.0311377253 0.926046729 0.83296001 0 0.00430401834 0.99999994 0.000794837077 
-0.290583134 0.0302090421 -0.0101039615 0.319740593 0.633330345 0 0.12276639 -0.992191792 0.0169541631 
-0.0338495821 0.0822663158 0.0459856354 0.816991508 -0.00205175555 0 -0.0333043039 0.00406896044 0.999420285 
0.032478679 0.085096024 -0.0290490333 0.959920168 0.810360432 0 0.609366834 0.777767301 0.147310734 
-0.08164078 0.0784531161 0.0188896563 0.737549067 0.28894037 0 -0.177917778 0.983546257 0.0317217559 
0.0322095267 0.0196281429 -0.0441571511 0.950274229 0.0279623233 0 -0.301078379 0.935411751 -0.134087041 
-0.388696939 0.0542350225 -0.00465655839 0.114025749 0.567255437 0 0.0222956296 0.998583555 0.00360469404 
-0.0777598843 0.0710561946 -0.0445491858 0.778222561 1.00185788 0 -0.0328241475 0.000346509041 -0.999487519 
-0.280726582 0.0460235029 0.0145802619 0.343739748 0.309158266 0 -0.12767525 0.99142015 0.0235781483 
-0.371526271 0.0218211953 0.0159585904 0.161984056 0.273178995 0 0.0697851852 -0.997352302 -0.01628194 
0.0021967534 0.0824561343 0.0145080248 0.976076245 0.577531636 0 -0.149714917 -2.43459317e-06 -0.988714039 
-0.156810731 0.0647733659 -0.0267541185 0.584005594 0.816932678 0 -0.166956067 0.984785557 -0.0467498675 
-0.350113332 0.0238674618 0.0051676319 0.18318212 0.428258479 0 0.08649607 -0.996013761 -0.00781932846 
-0.254633516 0.049465932 0.0204311721 0.392321378 0.23820585 0 -0.138424724 0.989613056 0.034110155 
-0.1377168 0.00481955847 0.0307416413 0.619722426 0.860815465 0 -0.000149079715 -0.999999881 0.00119549478 
-0.234698743 0.0525884777 0.00236397726 0.351970911 0.470733702 0 -0.147490114 0.988997877 0.00555017497 
-0.0137751419 0.0810253024 0.00506157475 0.193983257 0.58362186 0 0.938641787 -0.000125770224 -0.344728053 
-0.309607238 0.0579638146 -0.0108159231 0.287544459 0.645113528 0 -0.102216981 0.992958605 0.0550378375 
0.0467092618 0.0232767966 -0.0165043157 0.992870271 0.323671877 0 0.668683529 -0.737569273 0.0936206803 
-0.398059398 0.0349275358 -0.0121277422 0.111246884 0.676661849 0 -0.0465710126 0.998641133 -0.00871338788 
-0.257895172 0.0490506701 -0.0193825345 0.386401355 0.748996973 0 -0.137112886 0.989860356 -0.0322031416 
-0.280985206 0.0458867066 0.0180719104 0.341214061 0.263250083 0 -0.127387822 0.991291285 0.0289757662 
-0.23273547 0.019432975 0.0308980793 0.429541379 0.890438318 0 -0.000398077944 0.999999762 0.00047358335 
0.0563558824 0.0285224356 0.0416833721 0.999998868 0.946699083 0 0.949855447 -0.00997183379 -0.312205881 
-0.182146087 0.0615749285 -0.00304263341 0.443923533 0.537189066 0 0.160921901 -0.986858249 0.00722651323 
-0.192612603 0.0435795523 0.0355190895 0.506474793 0.0654830262 0 0.157670379 -0.985733151 -0.0574983805 
-0.299359649 0.0431074947 -0.0240330789 0.300952584 0.820410371 0 -0.119155571 0.992151797 -0.0372270383 
-0.390386939 0.00491990987 0.0299291536 0.113968171 0.935541511 0 -0.000828194898 -0.999999881 0.00220839633 
-0.16968894 0.0788479149 -0.0066492036 0.510244489 0.579612017 0 -0.166610688 0.95682013 0.209594175 
-0.14273414 0.0891009122 0.0306457598 0.609830916 0.140589789 0 -0.233703718 0.969486237 0.0735999197 
-0.382535785 0.0354513898 -0.0317077711 0.128206953 0.957871437 0 -0.0596757084 0.996872783 0.0190244857 
-0.454381496 0.0114623923 -0.00706016598 0 0.391286969 0 -0.990352631 -0.0031048716 -0.137519702 
0.0567173101 0.0301597659 -0.04275994 1 0.0373699516 0 0.952055871 -0.00150870054 0.305688858 
-0.233027771 0.0527897812 0.00570566626 0.388748765 0.428622872 0 -0.148195863 0.988870382 0.0122614074 
-0.186056852 0.045759365 0.00988035928 0.514575601 0.380634427 0 0.159519121 -0.986947298 -0.018910313 
-0.192908958 0.0584707521 -0.0304765347 0.509569824 0.872041702 0 -0.158635601 0.985871315 -0.0532328896 
-0.39059782 0.0208512153 -0.0145514226 0.124810889 0.710573614 0 0.0521895215 -0.998344064 0.0114134382 
-0.218938336 0.0614860132 -0.0399193764 0.446899295 1.00032413 0 -0.0328218006 9.0557558e-05 -0.999499977 
-0.00835953839 0.0940641165 0.0196149666 0 0 0 0.0276866257 -0.320717782 -0.896511078 
-0.358971357 0.0193784479 0.0115344338 0.187247768 0.662028015 0 -0.000499999966 0.999999821 0.000284556299 
-0.165939018 0.0490707308 0.0126094036 0.569492519 0.349912196 0 0.16414699 -0.986123979 -0.0226856284 
-0.250363678 0.0509674884 -0.000277926942 0.312222034 0.504062176 0 0.134588152 -0.990703702 0.000607656431 
-0.313936621 0.0383889191 0.0367970765 0.253787518 0.000450462743 0 -0.0333297364 0.00533325225 0.999402821 
-0.319063336 0.0409979522 0.0254473705 0.260667741 0.154541567 0 -0.106228784 0.993507504 0.0362267122 
-0.0871214047 0.0782594904 -0.00231709937 0.592639387 0.526720226 0 0.179211855 -0.983804464 0.00536154443 
-0.450140417 0.0337581784 -0.00690944446 0.00820522569 0.60588938 0 -0.00877278019 0.999999881 -0.00121518807 
-0.0264501348 0.0927498117 -0.00140349171 0 0 0 0.997780442 -0.00741225807 0.0663399398 
-0.372354954 0.0449525602 -0.0348606445 0.13637425 0.999240637 0 -0.0375207625 -0.00573560316 -0.999168158 
-0.136818305 0.0535541736 -0.0248416383 0.624927282 0.789595783 0 0.170693979 -0.984360039 0.0431459658 
-0.0411924608 0.00467194151 0.00472503714 0.716492355 0.55095315 0 -0.00310966768 -0.999999881 0.00213763025 
-0.0122838505 0.0866687894 0.00802618917 0.157854378 0.561529458 0 0.836943626 0.00338481995 -0.547138453 
-0.0306989048 0.0879464746 -0.0284433439 0.834745646 0.806665957 0 0.180643544 -0.982434452 0.0458700508 
-0.195961758 0.0470672473 -0.0406686589 0.485658973 1.00038517 0 -0.0320025347 -0.00477208663 -0.999499798 
-0.432148427 0.0436121896 0.0282146912 0.0315589309 0.0725368336 0 -0.14069435 -0.987274528 0.0711618736 
-0.193378985 0.0592625737 -0.0043187621 0.436427891 0.552983403 0 -0.158721268 0.987242162 -0.0101149194 
-0.09804295 0.00481328974 -0.0373665541 0.700150847 0.0721438304 0 1.05639774e-05 -0.999999881 -0.00111131498 
-0.409865618 0.0197134633 0.0246481951 0.0794952959 0.135543525 0 0.0315486267 -0.999412954 -0.0118898861 
-0.131360456 0.0545889512 0.0222270098 0.637085974 0.242092133 0 0.171842799 -0.984331429 -0.0385506637 
-0.0118823536 0.0889145732 -0.0383765772 0.866478443 0.911848366 0 0.00264482247 0.999999881 0.000170720246 
-0.319724143 0.0317051671 -0.0366091877 0.244623393 0.999559462 0 -0.0325401425 -0.00269998726 -0.999499977 
-0.0869636983 0.019483611 0.0271321908 0.723123133 0.806551039 0 0.000175024557 0.999999881 0.00408238592 
-0.30509901 0.0313263535 -0.0370843336 0.272924483 0.999605656 0 -0.0321860462 -0.00551017048 -0.999499917 
-0.355488688 0.0193779003 -0.0279228929 0.185834631 0.107286297 0 -0.000484721444 0.999999881 -0.000469780032 
0.00776690478 0.103961766 -0.0308397971 0.850862026 0.828521788 0 0.0472515747 0.998344421 -0.00287945895 
-0.168141603 0.0632687509 0.0160971042 0.566483498 0.307980001 0 -0.16443485 0.985956073 0.0283030346 
-0.448538035 0.0337610878 -0.0101047251 0.0108225262 0.654705882 0 -0.00869896635 0.999999821 -0.00158553885 
-0.0983988866 0.0195169467 0.0121982163 0.697808743 0.638034463 0 -0.000717741961 0.999999821 0.00236526155 
-0.383464843 0.0354710221 0.0267143995 0.130743772 0.114742376 0 -0.0569845848 0.997898698 0.0216349624 
-0.251107782 0.00484424224 0.00818669703 0.383308202 0.604499102 0 -0.000508114405 -1 0.000643451058 
-0.278925151 0.047207322 0.00292286719 0.28468737 0.462187231 0 0.117015287 -0.992862999 -0.00579658244 
-0.350577682 0.00776377972 -0.0355831757 0.108040243 -0.000282591122 0 -0.0325834565 -0.00321670994 -0.999499857 
0.031714499 0.0826951712 0.00457369071 0.965483546 0.451135755 0 0.637308002 0.769523203 -0.0332096145 
-0.423318416 0.0564760976 0.018926397 0.0565425456 0.216876015 0 0.101866752 0.993774652 -0.0326137505 
-0.0990624949 0.0761000291 -0.00156725571 0.565800905 0.518495679 0 0.177721098 -0.984089196 0.00365808792 
-0.147538006 0.0510760732 -0.0373993888 0.595447481 0.941849113 0 0.168072045 -0.983847976 0.0608168542 
0.0491490886 0.0408600047 -0.00573413586 1 0.438738108 0 0.528515339 0.848294556 0.0324048512 
-0.368534088 0.03939512 0.0311676748 0.156879127 0.0560437962 0 0.00515046623 -0.99922955 -0.00418082345 
0.0206176322 0.074328348 -0.0351685919 0.933104038 0.875959039 0 0.00312952232 -1 0.000813087332 
-0.435702473 0.00494134193 -0.0112140877 0.0354961231 0.330441236 0 -0.00137354014 -1 -0.000319568091 
0.028495932 0.0714710578 -0.0119403386 0.957843304 0.627567708 0 -0.581149817 -0.807544172 -0.0627105907 
-0.00730991969 0.00484119914 -0.0313328728 0.879709959 0.162443981 0 0.00172857963 -1 -0.00342637603 
-0.439510137 0.015681766 0.032662455 0.0120478505 1.00002086 0 -0.0373138338 0.000149513973 0.999319434 
-0.102209002 0.058998514 -0.0386642255 0.685402155 0.94146812 0 0.175349697 -0.982540488 0.0621226393 
-0.177190885 0.0611939691 0.0294101462 0.541734397 0.145645961 0 -0.162247181 0.985364318 0.0514379442 
-0.114788502 0.0193135198 0.0431121811 0.752661467 1.00196838 0 -0.0231948495 0.521521568 0.798638999 
0.0323354229 0.00555498619 0.042258136 0.951831996 0.951747894 0 0.444918394 -0.876606345 -0.16219683 
-0.390013844 0.0442533121 -0.0342497714 0.102718301 0.998974562 0 -0.0427467041 -0.0190235917 -0.998678088 
-0.0095975576 0.0970155746 -0.0465255901 0.850648999 1.00222385 0 0.0127634974 0.00251550484 -0.999896109 
-0.439929068 0.0193337798 -0.017741492 0.0241035838 0.230165973 0 -0.000975295668 0.999999821 -0.000334725395 
-0.134280115 0.080649823 0.0426826961 0.622365355 -0.00148354378 0 -0.0340189151 0.00531857973 0.999424338 
-0.0121968109 0.015561752 -0.00816097576 0.156113416 0.594915688 0 0.831013858 0.00127681019 0.556306362 
-0.263117492 0.0484405197 -0.015545994 0.378505647 0.700436831 0 -0.135101289 0.990370154 -0.0257210732 
-0.301768154 0.0280472469 0.0292709339 0.292487323 0.108265683 0 0.116299875 -0.992247581 -0.0430266559 
-0.276765406 0.061990425 0.033285629 0.339408249 0.063451454 0 -0.139254242 0.987442732 0.0655634403 
-0.0377080217 0.0998960435 0.0458474234 0.807712078 -0.0024777595 0 -0.0315181613 0.00772804068 0.99945879 
0.0204406753 0.0887956321 -0.0415304713 0.928735197 0.944318652 0 0.0042677368 0.999999821 -0.000327520567 
-0.0741333067 0.00477685267 -0.0238729063 0.750354111 0.234157473 0 7.49452738e-06 -0.999999881 -0.00404973328 
-0.252155662 0.0194240548 0.0250818748 0.39458552 0.821557879 0 -0.000413499452 0.999999762 0.00120919885 
-0.275300473 0.0315893814 0.0305293687 0.34458673 0.100651622 0 0.127924651 -0.990496874 -0.0473143943 
-0.0578801446 0.0140993362 0.0447788537 0.872439802 1.00172508 0 -0.0274180267 -0.00189284468 0.999589145 
-0.00825043116 0.0195466615 -0.016534498 0.88418448 0.324317694 0 1.60561394e-05 0.99972856 -0.0226952452 
-0.368372887 0.00490303524 0.00373506243 0.145097658 0.552980006 0 -0.000599417835 -0.99999994 0.000122786383 
-0.259344906 0.0415056273 0.038593892 0.368264019 3.63336876e-05 0 -0.0328862667 0.000742487027 0.999482036 
-0.389143676 0.0322997048 -0.0343274735 0.100896955 0.999464393 0 -0.0330594853 0.00514527597 -0.999403894 
0.0232329872 0.0816035047 -0.0467551015 0.933241248 1.00033116 0 -0.00510000112 -0.000380988466 -1.00000012 
-0.186004743 0.0797988251 0.0223602727 0.528043211 0.229222879 0 -0.211376891 0.975726843 0.0522766039 
-0.17030482 0.0480319709 0.0223573521 0.559412897 0.232569158 0 0.163000241 -0.985798895 -0.0388176106 
-0.109667704 0.0683755204 -0.0434982702 0.687734187 1.00140071 0 -0.0334744975 0.00415321393 -0.99942255 
-0.18031548 0.0194614474 0.0180894975 0.541262567 0.718585134 0 -0.000558716361 0.999999881 0.00145203318 
-0.132190391 0.0688938275 0.0276141297 0.632668316 0.179017037 0 -0.172615916 0.983774662 0.0482318476 
-0.119496509 0.0195209701 -0.00261887209 0.552714884 0.470766485 0 -0.00101367396 1 -0.000776462082 
-0.407642037 0.0199225899 -0.0180151761 0.0884921476 0.765233755 0 0.0354590379 -0.99926281 0.00989264809 
-0.0146736 0.0855015218 -0.000205138102 0.252225757 0.566102207 0 0.999828994 0.000608723785 0.0140177673 
-0.424340069 0.0195681881 -0.0167230424 0.0559499487 0.750238895 0 0.0202097129 -0.999725044 0.00534064323 
-0.319081068 0.0267498046 -0.0155146308 0.266997755 0.710088551 0 0.106656902 -0.993862987 0.0221662316 
-0.349874496 0.0235441942 0.0225731842 0.200977206 0.185085997 0 0.0847651809 -0.995879173 -0.0269440711 
-0.207232848 0.0563077554 -0.0345587581 0.477893353 0.927697599 0 0.15274705 -0.98655647 0.056744203 
0.0131803192 0.00715518463 0.00645092176 0.677520752 0.562032104 0 -0.897984385 -0.00343586202 -0.439803272 
-0.0887774229 0.076030992 -0.0407065004 0.710787117 0.960820198 0 -0.177750885 0.981480598 -0.0708899423 
-0.0482128114 0.0847885609 0.026836101 0.800579846 0.207161859 0 0.181250393 -0.982443273 -0.0442216992 
-0.401947737 0.00492159044 -0.00807080138 0.0998394042 0.382052094 0 -0.000879757456 -0.99999994 -0.000167066435 
-0.0544381253 0.0829491839 -0.0303239059 0.786378503 0.832782626 0 -0.180552706 0.982262015 -0.049838081 
-0.214225113 0.0510467961 0.0400689729 0.459072798 -0.000314941339 0 -0.0334823169 0.00472546462 0.999413252 
-0.021840686 0.0741618499 0.0206181332 0.8556481 0.279083639 0 0.00916503463 -0.999929309 2.72330071e-05 
-0.218356848 0.0540295616 0.032590121 0.457124531 0.0934356451 0 -0.152768314 0.986676037 0.0565696135 
-0.298334032 0.0437301695 0.00764160091 0.295311302 0.398612082 0 -0.120535791 0.992583513 0.0138076982 
-0.282470673 0.0463712253 0.0207741018 0.336567342 0.227327257 0 0.11380063 -0.992812395 -0.0306737628 
-0.396247774 0.00491811428 0.00532956747 0.103854373 0.577501655 0 -0.000792850391 -0.99999994 0.000111764297 
-0.233900428 0.0371034145 0.0347639769 0.424230695 0.0601546019 0 0.145095378 -0.987877429 -0.052145727 
-0.0666189566 0.0810701102 -0.0223543998 0.765961587 0.747119546 0 -0.179526895 0.98305428 -0.0370495133 
-0.420296073 0.00493444968 0.0234655328 0.0594488084 0.850588143 0 -0.00123484316 -0.999999881 0.000571581768 
-0.0712428316 0.0797161236 -0.0332131311 0.751123428 0.869371712 0 -0.179268688 0.982213974 -0.0554403663 
-0.403320313 0.0193541404 -0.0222125947 0.0943458825 0.173754066 0 -0.000712780631 0.999999881 -0.000338502228 
-0.195849061 0.0747570992 0.0086785499 0.489456981 0.394426554 0 -0.160470799 0.949367225 -0.245751798 
0.032837525 0.0672008991 0.000180018542 0.967980742 0.498076737 0 -0.64318186 -0.765301228 0.00131828489 
-0.202239409 0.0421292894 -0.032800287 0.489279419 0.903789878 0 0.155585796 -0.986170053 0.0558958501 
-0.448199421 0.0337575041 -0.0172524862 0.00798133668 0.764495373 0 -0.00885302201 0.999999821 -0.0026000347 
-0.349593401 0.00489580678 -0.021471424 0.202226758 0.200354278 0 -0.000479735725 -0.99999994 -0.000603967928 
-0.0169241242 0.080320619 0.0465365164 0.85054028 -0.00221174071 0 -0.0196824782 -0.00228274078 0.99979496 
-0.389498949 0.00491414126 0.00386769581 0.11027547 0.555934072 0 -0.000693523267 -0.99999994 0.000101213765 
-0.217966527 0.0643152669 -0.0399461985 0.447590441 1.00030327 0 -0.0336424001 0.0047343974 -0.999435902 
-0.298969209 0.0282141324 0.0322251022 0.295695633 0.0692312345 0 0.117285818 -0.992367744 -0.0376380309 
-0.121278062 0.0048179077 0.0337256715 0.650653124 0.891404569 0 -0.000101887141 -0.999999881 0.000605473295 
0.00250869314 0.0937661231 -0.0459974483 0.848255277 0.999404073 0 0.097289145 -0.00463772425 -0.994985998 
-0.19718425 0.0585962497 0.0061045629 0.454947561 0.425856948 0 -0.15785107 0.987350345 0.013140046 
-0.104586311 0.0947724059 -0.0130388532 0.688376665 0.64798075 0 -0.155008823 0.750169516 0.63611716 
-0.0318770036 0.0195226688 0.0224539433 0.835101783 0.742496431 0 0.000456084817 0.999999881 0.00519377552 
0.0219278913 0.0887748376 0.0277454834 0.939643502 0.203468904 0 0.00591205712 0.999987006 -0.000653087976 
0.00603609486 0.0194060933 -0.0313788541 0.906230986 0.163407207 0 0.00196677446 0.999999821 -0.00165748689 
0.0422743782 0.065544121 -0.0421077833 0.971737385 0.949883342 0 -0.636191189 -0.741617799 -0.211604401 
-0.096099399 0.0760490447 0.0101698209 0.682404399 0.385430783 0 -0.17634061 0.98413831 0.0192620978 
0.00971367676 0.0742911175 -0.0296351146 0.914397359 0.816991806 0 0.0038128898 -0.999999881 0.000853530248 
-0.34279421 0.0193881746 0.00656133238 0.205314264 0.590836048 0 -0.000528020377 0.999999881 0.00035723421 
0.0171175767 0.0743180141 -0.0326911509 0.927590191 0.849536657 0 0.00364687433 -0.99999994 0.00101104018 
-0.0192648191 0.00475773821 -0.021331396 0.860631883 0.271428466 0 0.00355724478 -0.999989748 -0.00835471787 
0.0338364393 0.0700148866 0.0311613549 0.961552858 0.167065084 0 -0.620511591 -0.76736629 0.160882771 
-0.173066184 0.0504843555 -0.0414187834 0.535216093 1.00062704 0 -0.0318864137 -0.00540249702 -0.999499798 
-0.169662148 0.00952429231 0.0413797684 0.648273349 1.00169504 0 -0.0312330239 0.00150550588 0.999500036 
-0.308675945 0.0274414402 0.0272104107 0.280177116 0.133851707 0 0.111995503 -0.992807329 -0.0395938456 
-0.388952434 0.039780017 -0.00178651814 0.102468871 0.525929689 0 -0.0241215471 -0.998535514 -0.00101395999 
-0.2380604 0.0510624237 -0.0356194638 0.415176392 0.952474833 0 -0.144207507 0.987786651 -0.0558308139 
0.0145202754 0.0742611513 -0.01624896 0.929064155 0.672822177 0 0.0072039878 -0.999735355 -0.0212312639 
-0.0793716758 0.0630233064 0.0408969745 0.729520082 0.0402097031 0 0.177673981 -0.982304335 -0.0590608604 
-0.214650616 0.0549004488 -0.0372333601 0.460852504 0.964384615 0 0.150207341 -0.98727107 0.0512357727 
0.0139718885 0.00928607024 0.00447581569 0.700661659 0.570367098 0 -0.952233076 -0.000258042506 -0.305057466 
0.0146424826 0.0778746828 0.000998644391 0.760836244 0.595937371 0 -0.997638941 -0.00186793774 -0.0680632889 
0.0540141873 0.024962524 0.0397874936 0.996557951 0.925110161 0 0.658041298 -0.722830117 -0.210789144 
-0.265058458 0.0482319146 -0.0129614985 0.374907643 0.667344809 0 -0.134426624 0.990527391 -0.0218432304 
0.0363228917 0.0291568805 -0.00824193563 0.974081635 0.411945134 0 -0.658311963 0.750573158 -0.0540305786 
-0.0895448551 0.0194943994 -0.0236369595 0.719735682 0.23368448 0 -4.52588974e-05 0.999999881 -0.00383291394 
-0.411384583 0.0197657105 0.015310077 0.0827360302 0.273886442 0 0.0325656459 -0.999454021 -0.00777658634 
-0.341358006 0.0387843177 -0.0253176782 0.216172114 0.850748658 0 -0.0910659283 0.995134711 -0.0319748223 
-0.219195753 0.00483242096 -0.0214170963 0.462360322 0.23313272 0 -0.000431683293 -0.999999821 -0.00139204867 
-0.340836287 0.00489269709 -0.0236688368 0.218272239 0.172087491 0 -0.00047394092 -0.999999881 -0.000543737435 
-0.0984133258 0.0602291971 0.0296209846 0.698985577 0.164265573 0 0.175518066 -0.983193159 -0.050206732 
-0.183260322 0.0155064454 -0.0409540571 0.60903126 -0.00159260444 0 -0.031266883 -0.00143540837 -0.999500036 
-0.19985427 0.0427762382 -0.0285791121 0.496971011 0.85058856 0 0.156173185 -0.986438453 0.0497046523 
-0.146603465 0.0521760732 0.0175925624 0.609077752 0.293599665 0 0.168542191 -0.985173404 -0.0305937007 
-0.413568974 0.01974787 0.00426355237 0.0699642897 0.437109232 0 0.0321152844 -0.999473453 -0.00275547756 
-0.434938103 0.0193358194 -0.0221333951 0.0311429873 0.164565042 0 -0.00101037638 0.999999881 -0.000389392779 
0.0128712188 0.102632143 -0.0221934989 0.850847661 0.731233716 0 0.0812053382 0.778465152 0.544127762 
-0.205738097 0.0676652417 -0.0403442569 0.471979558 1.00044417 0 -0.0339680165 0.00630813651 -0.999404132 
-0.0943316221 0.0194660369 -0.0340766869 0.704320312 0.112226389 0 -3.07095179e-05 0.99999994 -0.000706740189 
-0.256789058 0.0495449491 -0.000229562531 0.301241159 0.5034554 0 -0.138094872 0.990265489 -0.000521250418 
-0.126467705 0.0555382185 -0.020611003 0.647621453 0.738200903 0 0.17234388 -0.984354973 0.0356055126 
-0.118955776 0.056153018 0.0354540572 0.654186845 0.0908288062 0 0.173559636 -0.982983291 -0.0598836765 
0.0493086167 0.0324919708 0.00730978698 1 0.578096032 0 0.99708271 -0.000920019462 -0.0742720068 
-0.133847386 0.0194566026 0.0331500135 0.625883281 0.888254642 0 -0.000135539914 0.999999821 0.000636838726 
0.0381657779 0.0772119015 0.00693088211 0.977938056 0.425952107 0 0.663049698 0.746950865 -0.0473768897 
-0.431453586 0.0300205126 0.0329357311 0.00505236536 2.67468822e-05 0 -0.0330925211 0.00348614645 0.999427497 
-0.398512781 0.0193574037 -0.0197303537 0.105602868 0.211783215 0 -0.000647183275 0.999999881 -0.000305985392 
-0.348154962 0.0378528833 -0.0323432088 0.196782321 0.952122808 0 -0.0872503445 0.995752752 -0.0120457355 
-0.44961071 0.00669180183 -0.0243267957 7.67727579e-06 0.125492722 0 -0.91852808 -0.0594679974 -0.384831846 
-0.27187717 0.047505863 0.0273391455 0.353751242 0.143887997 0 0.119327188 -0.991740167 -0.0402670242 
-0.105670303 0.0833772868 -0.0436351188 0.688225985 1.0019474 0 -0.0327847265 -0.000286783528 -0.999499857 
0.0434827879 0.0759818777 0.0312576257 0.980645895 0.166026667 0 0.655513763 0.735535622 -0.170538202 
-0.433327854 0.0338417925 -0.020806089 0.0353927016 0.814593971 0 -0.0120547423 0.999904692 -0.0040064631 
-0.103872009 0.0194902997 0.0228884667 0.691523314 0.760577083 0 -0.000184758639 0.999999881 0.00318997935 
-0.143536448 0.00870144274 0.0422137715 0.713787794 1.00186646 0 -0.030835364 0.00241739326 0.999500036 
-0.232436985 0.0529271141 0.0218739789 0.435746759 0.22482267 0 0.14460057 -0.988703072 -0.038086284 
-0.224490806 0.053637743 -0.0208184831 0.452208161 0.760120153 0 -0.15119417 0.987800598 -0.0363089815 
0.0564252436 0.0532208681 0.0431190468 0.999957085 0.0355602987 0 0.0221145377 -0.914865136 0.0358638726 
-0.104277179 0.099552542 -0.0209484715 0.691402078 0.737945378 0 -0.244704381 0.968374491 -0.047635287 
-0.252101034 0.0354742669 0.011551409 0.399600625 0.352514774 0 0.139061525 -0.989955962 -0.0200848039 
-0.187174991 0.0477554984 -0.0409555547 0.502623498 1.00045896 0 -0.0318096019 -0.00596055109 -0.999499798 
-0.225164965 0.0543737933 0.0101894382 0.444884658 0.372892261 0 0.148128495 -0.988755107 -0.017625019 
-0.271326661 0.0325678922 0.0208526384 0.35879904 0.228945225 0 0.13038978 -0.990727246 -0.0336576067 
-0.0860139355 0.103676066 0.0295264367 0.723783016 0.168521553 0 -0.249684677 0.96579206 0.0699968338 
-0.00109776133 0.0816140249 0.0146358255 0.0119117098 0.576651871 0 0.0748038217 -2.88960164e-05 -0.997196496 
-0.204383314 0.0415100381 -0.0367617756 0.481863588 0.954401195 0 0.154749081 -0.986414552 0.0536254048 
-0.362257302 0.0371529795 -0.00543027464 0.163955435 0.576497197 0 -0.0793343782 0.996745944 -0.00760162342 
-0.311205655 0.0193980709 -0.0265294276 0.275595844 0.141869351 0 -0.000453594548 0.999999881 -0.000518717687 
0.042744033 0.0165909305 0.0331693329 0.978183508 0.854343593 0 0.654011488 -0.734648764 -0.180435181 
-0.421603829 0.00493643386 0.0269147735 0.053963419 0.903258622 0 -0.00129111751 -0.999999881 0.00109725446 
-0.0977689326 0.0610544607 -0.00859925337 0.665032148 0.597352266 0 0.175262526 -0.984355092 0.0169591475 
-0.152243972 0.0650514886 -0.0357295573 0.587263584 0.923287272 0 -0.16792357 0.983763814 -0.0619941205 
-0.340030253 0.0193850379 -0.0269417576 0.217562973 0.126619175 0 -0.000473708991 0.999999881 -0.000451495172 
-0.0547387227 0.0163529404 -0.0448850654 0.872310996 -0.0017279298 0 -0.0268270075 -0.00413445849 -0.999586701 
-0.338138252 0.0193906855 0.00194243947 0.188171536 0.526963472 0 -0.000531506725 1 0.000103959646 
-0.154218927 0.0510305539 0.0127138551 0.592458487 0.350054443 0 0.16684939 -0.985674143 -0.022873722 
0.0490809195 0.0620007925 0.00369581953 1 0.460514724 0 0.998894334 0.000884518144 -0.0420122966 
-0.032400392 0.0195801184 0.0118424725 0.829228342 0.627030551 0 -0.00141629239 0.99999994 0.00376767013 
-0.338270992 0.0413002521 0.00686683971 0.217479274 0.405601203 0 0.0588097461 -0.997437298 -0.00626105908 
-0.00098707329 0.074240908 -0.035855785 0.889743447 0.8840909 0 0.00421487354 -0.999999881 0.00111298251 
-0.278515309 0.046483878 0.00678123347 0.322588325 0.411649287 0 -0.128921866 0.991462946 0.0130168255 
-0.155566052 0.0807132572 0.00260283193 0.48353529 0.469917178 0 -0.170779794 0.981496334 -0.0671437234 
-0.144264057 0.0528513417 0.0024245237 0.49828124 0.472303957 0 0.169116735 -0.985550821 -0.00575435441 
0.0363279022 0.00894789957 -0.0406320728 0.960656226 0.0653017908 0 0.618115664 -0.757979512 0.208085045 
-0.209642604 0.0407031104 -0.0354938842 0.472330064 0.940280795 0 0.153703094 -0.986432552 0.056563139 
-0.122622781 0.0189445224 0.0428834409 0.734093249 1.00191963 0 -0.0301849376 0.0384065062 0.998708665 
-0.246070519 0.0165802017 -0.0389757119 0.424935162 -0.00111127517 0 -0.0319579057 0.000315613084 -0.999499977 
-0.086545147 0.0629563108 -0.0145185888 0.725839257 0.662735701 0 0.176499933 -0.983943582 0.0249263998 
-0.29466179 0.0442627072 -0.0058348286 0.284624785 0.577402532 0 -0.12207786 0.992410719 -0.0111854021 
-0.00495201396 0.103354253 -0.0226169024 0.850848436 0.736839175 0 0.019804528 0.857721686 0.431972384 
-0.387962252 0.0209849868 -0.0147653017 0.129938275 0.713134527 0 0.0546168014 -0.998207211 0.0120706568 
-0.0399981849 0.00822490267 -0.0452966243 0.880043924 -0.00155095779 0 -0.0256480072 0.0039851265 -0.999620259 
-0.088078171 0.0615311787 0.0393816717 0.713210583 0.0548957959 0 0.176837444 -0.982255936 -0.062370725 
-0.433087409 0.0578254312 -0.0227651428 0.0343070775 0.844349504 0 0.125604942 0.990650773 0.0480680764 
0.0395783484 0.0756688192 -0.000603105407 0.981332362 0.506443441 0 0.66558516 0.74617064 0.00456852233 
-0.0328250825 0.0195530839 0.0171458293 0.835131645 0.684912205 0 -0.000877732818 0.999984086 0.0072500417 
-0.115502305 0.0565563105 0.0389031805 0.658566356 0.0512113795 0 0.173945993 -0.982806146 -0.0619379133 
0.0302833281 0.0860819146 0.0251792632 0.95728302 0.230990797 0 0.568888068 0.80950129 -0.119204789 
-0.30665502 0.0340747647 0.0370415896 0.273566157 0.000358186226 0 -0.0327168703 -0.00101154565 0.999499917 
-0.375665992 0.0214187074 0.027187584 0.146004081 0.110773489 0 0.0632333159 -0.997533619 -0.0236699451 
-0.291596055 0.019407969 -0.0185158588 0.319508225 0.254878104 0 -0.000499999966 0.999999881 -0.000626641035 
0.018455511 0.0791753009 0.0467230752 0.932084322 -0.000358253194 0 -0.00506492145 -0.00407283613 1 
-0.0532737412 0.0194999389 0.0265660323 0.790653765 0.79245609 0 0.000361746876 0.99999994 0.00533881132 
-0.308293134 0.0194056649 -0.00305781746 0.241609588 0.459320515 0 -0.00055231218 0.99999994 -0.00021044293 
-0.0435508601 0.0850911289 0.0277968179 0.809433281 0.197498247 0 -0.18008934 0.982617438 0.0447883569 
-0.337554336 0.031852413 0.0360262394 0.210812673 0.000487315294 0 -0.0328349993 0.000131793393 0.999492466 
-0.0974240601 0.0759018436 -0.00454737339 0.596501946 0.55197686 0 -0.176142082 0.984280825 -0.0104102716 
-0.427079886 0.019527182 -0.018713966 0.049258627 0.780955374 0 0.0170954932 -0.999759436 0.00510301907 
0.0318382606 0.0103050256 0.0142406374 0.963974059 0.652143538 0 0.635997295 -0.7674703 -0.0783163607 
-0.195266977 0.0768442005 0.0347958319 0.501719296 0.0735048354 0 -0.204892069 0.974921644 0.0832265094 
0.047007855 0.0268726945 -0.0468000025 0.973046899 0 0 -0.00025786084 0.000230425838 -1 
-0.423248768 0.0195557475 0.0231486615 0.0538814999 0.153283775 0 0.0193587504 -0.999692678 -0.00714952266 
-0.272485197 0.0473528653 0.0040916875 0.303770155 0.447197765 0 -0.131470919 0.991172016 0.00890114252 
-0.15909864 0.085993737 -0.018638378 0.583287597 0.720789194 0 -0.226967379 0.972849369 -0.0423507988 
-0.38858366 0.0260487106 0.0343479291 0.106727935 0.000490126025 0 -0.0326682925 -0.00303615723 0.999475658 
