ply
format ascii 1.0
comment created by gply, a Houdini tool.
comment converted from .[b]geo
comment for more information about Houdini, try:
comment www.sidefx.com
element vertex 315
property float x
property float y
property float z
property float fbx_translation1
property float fbx_translation2
property float fbx_translation3
property float fbx_scale1
property float fbx_scale2
property float fbx_scale3
property float fbx_rotation1
property float fbx_rotation2
property float fbx_rotation3
property float nx
property float ny
property float nz
property float uv1
property float uv2
property float uv3
element face 0
property list uchar int vertex_indices
end_header
0.284099966 1.32669842 2.55657315 0 384.055481 277.819305 100 100 100 -1.57079649 0 0 0 1 -1.62920685e-07 0.419590235 0.164938226 0 
-0.60585022 6.57046461 -5.05904675 0 384.055481 277.819275 100 100 100 -1.57079649 0 0 -0.841789186 0.251024842 0.288397282 0.577755988 0.609861851 0 
-0.0890949592 1.26279151 3.58542991 0 384.055481 277.819305 100 100 100 -1.57079649 0 0 0 -1 1.62920671e-07 0.266423643 0.01934883 0 
-1.29111981 3.46820784 -5.05323172 0 384.055481 277.819305 100 100 100 -1.57079649 0 0 0.833010793 -0.248407781 0.322480172 0.311239719 0.5828439 0 
0.0376053192 1.26279128 2.46491766 0 384.055481 277.819305 100 100 100 -1.57079649 0 0 0 -1 1.62920657e-07 0.286477506 0.196700498 0 
0.575741231 1.31235671 -2.64449811 0 384.055481 277.819305 100.000008 100.000008 100.000008 -1.57079649 0 0 1 0 0 0.965869546 0.25584501 0 
-0.390387833 6.44650841 5.57095528 0 384.055481 277.819305 100 100 100 -1.57079649 0 0 0.920362294 -0.2744551 0.101466447 0.572943687 0.646716416 0 
0.755016208 5.44716883 -5.20875216 0 384.055481 277.819305 99.9999924 99.9999924 99.9999924 -1.57079661 0 0 -0.464037001 -0.138377711 -0.794343293 0.518377602 0.670652866 0 
-0.422403902 1.32669854 3.55949879 0 384.055481 277.819275 100 100 100 -1.57079649 0 0 0 1 -1.62920685e-07 0.531413794 0.323678523 0 
-0.354081213 1.3266983 1.90680492 0 384.055481 277.819305 100 100 100 -1.57079649 0 0 0 1 -1.62920671e-07 0.520599842 0.0620946623 0 
-0.860920966 5.56791449 -5.20355606 0 384.055511 277.819305 99.9999924 99.9999924 99.9999924 -1.57079649 0 0 -0.539831221 0.160978958 -0.763110995 0.490819603 0.623938918 0 
1.78796887 1.74443126 -5.10168266 0 384.055481 277.819275 99.9999924 99.9999924 99.9999924 -1.57079637 0 0 -0.94823283 -0.282766253 -0.0253303237 0.195105359 0.659339368 0 
-1.11094809 4.05083036 5.58582973 0 384.055481 277.819305 100.000008 100.000008 100.000008 -1.57079637 0 0 0.876273334 -0.261307657 0.211126924 0.362530649 0.645371318 0 
-0.0554360375 7.72505569 -2.59267092 0 384.055481 277.819305 100 100 100 -1.57079649 0 0 -0.428407609 -0.885208547 1.42495352e-07 0.515755236 0.735316277 0 
0.235327542 1.26279128 2.45047235 0 384.055481 277.819305 100 100 100 -1.57079661 0 0 0 -1 1.62920685e-07 0.317772448 0.198986813 0 
-0.428361744 1.26279151 3.35623741 0 384.055481 277.819305 100 100 100 -1.57079649 0 0 0 -1 1.62920671e-07 0.212725416 0.0556248128 0 
-0.489563495 1.51150644 1.48548925 0 384.055481 277.819336 100 100 100 -1.57079649 0 0 -0.54383266 0.690486789 0.0153371021 0.918194175 0.586830616 0 
1.67057228 2.36781049 -5.20762491 0 384.055481 277.819305 100 100 100 -1.57079649 0 0 -0.473877251 -0.141312167 -0.791014552 0.248170808 0.670419931 0 
-0.335008234 1.32669771 -2.01897502 0 384.055481 277.819336 100 100 100 -1.57079649 0 0 0 1 -1.62920671e-07 0.517581046 0.152368337 0 
-0.316413671 3.84979725 3.68287706 0 384.055481 277.819305 100 100 100 -1.57079649 0 0 -0.845457613 -6.32554293e-05 -0.459004074 0.46115905 0.489928901 0 
1.63665569 2.88465381 5.44091892 0 384.055481 277.819305 100 100 100 -1.57079649 0 0 0.373955011 0.111514509 -0.834908903 0.290644228 0.706331134 0 
1.45359004 2.88349199 -5.11446095 0 384.055481 277.819305 99.9999924 99.9999924 99.9999924 -1.57079637 0 0 -0.913007498 -0.272262573 -0.116575547 0.29494977 0.660493314 0 
0.23442091 7.68110752 -4.96001387 0 384.055481 277.819305 100 100 100 -1.57079637 0 0 0 1 -1.62920671e-07 0.834882677 0.0603069626 0 
-0.329352766 1.32669854 3.39508748 0 384.05545 277.819305 100 100 100 -1.57079649 0 0 0 0.99999994 -1.62920671e-07 0.516685903 0.29765597 0 
1.78811502 2.22067857 -5.23294878 0 384.05545 277.819305 100 100 100 -1.57079649 0 0 0.0536334366 0.0159926619 -0.979730785 0.233487189 0.676888704 0 
0.0645444095 7.95170736 -4.07747269 0 384.055511 277.819305 100.000015 100.000015 100.000015 -1.57079661 0 0 0.49879691 0.866347671 -1.40818472e-07 0.607561827 0.759576976 0 
1.13644946 3.97518086 5.51983976 0 384.055481 277.819305 100 100 100 -1.57079649 0 0 -0.856483042 -0.255406171 -0.262065411 0.390563786 0.655712724 0 
1.19059515 4.60755777 5.51577806 0 384.055511 277.819305 100 100 100 -1.57079637 0 0 0.845167696 0.252031773 -0.291190475 0.440233648 0.697324574 0 
-2.24562812 0.507927835 -5.21608829 0 384.055481 277.819336 100 100 100 -1.57079649 0 0 0.290682465 -0.0866827592 -0.86497432 0.0496884212 0.634844422 0 
0.419041455 1.32669747 -3.1656611 0 384.055481 277.819305 100 100 100 -1.57079649 0 0 0 1 -1.62920671e-07 0.398232102 0.333862722 0 
-0.516202152 6.014328 -5.10537863 0 384.055481 277.819305 100 100 100 -1.57079649 0 0 0.939192176 -0.280070752 -0.0504483357 0.535085976 0.647385716 0 
-0.635283887 6.44509172 -5.0398469 0 384.055481 277.819305 100 100 100 -1.57079649 0 0 -0.785614789 0.234273583 0.428829521 0.566943407 0.608124495 0 
0.383326054 1.32669842 2.21446157 0 384.055481 277.819275 100 100 100 -1.57079649 0 0 0 1 -1.62920671e-07 0.403884947 0.110789716 0 
0.155415982 1.32669842 3.00922608 0 384.055481 277.819305 100 100 100 -1.57079637 0 0 0 1 -1.62920685e-07 0.439958006 0.236582875 0 
0.305811644 1.26279128 2.02126646 0 384.055511 277.819305 100 100 100 -1.57079649 0 0 0 -1 1.62920671e-07 0.32892853 0.266920358 0 
-0.53327328 1.32669854 3.15246201 0 384.055481 277.819305 100 100 100 -1.57079649 0 0 -7.2152161e-06 1 -1.62920685e-07 0.548961878 0.259253889 0 
-0.391214132 2.06234694 1.51579893 0 384.055481 277.819275 100 100 100 -1.57079649 0 0 -0.0132942591 0.00359623507 0.93885541 0.774322391 0.949399829 0 
0.501540482 6.19991684 5.45785236 0 384.055481 277.819305 100 100 100 -1.57079661 0 0 -0.678423226 -0.202308208 -0.691310883 0.58514601 0.719189823 0 
-0.420080662 2.56793594 3.69169903 0 384.055481 277.819305 100.000008 100.000008 100.000008 -1.57079649 0 0 -0.859085739 -0.16859217 0.293790042 0.942738116 0.831697524 0 
-0.650317252 5.59372663 -5.07004881 0 384.05545 277.819305 100 100 100 -1.57079649 0 0 0.881697774 -0.262926072 0.199811235 0.497961789 0.581323087 0 
-0.0646348745 1.26279128 2.54009008 0 384.055511 277.819305 100 100 100 -1.57079649 0 0 0 -1 1.62920671e-07 0.270295173 0.184802413 0 
-0.458391309 1.54959643 1.48084962 0 384.055481 277.819305 100 100 100 -1.57079649 0 0 0.2743662 -0.708481669 -0.497015893 0.56074059 0.47054711 0 
-0.251241982 1.26279056 -1.70271754 0 384.05545 277.819275 99.9999924 99.9999924 99.9999924 -1.57079637 0 0 0 -1 1.62920671e-07 0.240759492 0.24481985 0 
0.387505233 1.32669771 -1.91853261 0 384.055481 277.819305 99.9999924 99.9999924 99.9999924 -1.57079649 0 0 0 1 -1.62920671e-07 0.403223515 0.136470571 0 
-1.84860158 2.18768573 -5.21196985 0 384.055481 277.819275 100 100 100 -1.57079649 0 0 -0.410359144 0.122369274 -0.818537116 0.194626883 0.625722945 0 
0.358658224 1.26279116 1.7208091 0 384.055481 277.819305 99.9999924 99.9999924 99.9999924 -1.57079637 0 0 0 -1 1.62920671e-07 0.33729291 0.314475954 0 
-1.76399171 1.89802098 -5.04203701 0 384.055481 277.819305 100 100 100 -1.57079649 0 0 0.796914577 -0.237643301 0.407788694 0.173312306 0.583856106 0 
-1.25476193 3.85212302 -5.21873331 0 384.055481 277.819305 100 100 100 -1.57079649 0 0 0.287420273 -0.0857106969 -0.873111725 0.34305799 0.634284079 0 
0.306218892 2.98500943 1.51094174 0 384.055481 277.819275 100 100 100 -1.57079661 0 0 -0.85944289 0.173095509 0.446747452 0.90963167 0.415576518 0 
2.0414443 1.0402559 -4.99914074 0 384.055481 277.819305 100 100 100 -1.57079649 0 0 -0.633986592 -0.189057469 0.729893565 0.132258654 0.719084084 0 
-0.484632283 1.26279128 2.56837368 0 384.055481 277.819305 100 100 100 -1.57079649 0 0 0 -1 1.62920671e-07 0.203819245 0.180325776 0 
-0.172387317 7.16083145 -5.09567356 0 384.055481 277.819336 100 100 100 -1.57079637 0 0 0.951956868 -0.283876419 0.0173443798 0.635757864 0.579004943 0 
-2.26196337 0.76986295 -4.98052788 0 384.055481 277.819305 100 100 100 -1.57079649 0 0 -0.373246968 0.11130435 0.837351441 0.0704089254 0.600257158 0 
1.01954854 4.84621811 5.68517637 0 384.055481 277.819305 100 100 100 -1.57079649 0 0 0.146188736 0.0435941182 0.935461521 0.463580757 0.678146422 0 
0.0261156932 1.26279116 1.57957625 0 384.055481 277.819305 100 100 100 -1.57079649 0 0 0 -1 1.62920671e-07 0.284658998 0.33682996 0 
-0.0349624157 7.66595745 -5.03550959 0 384.05545 277.819305 100.000023 100.000023 100.000023 -1.57079649 0 0 2.77786971e-09 -0.99999994 1.62920671e-07 0.850426495 0.0767563954 0 
-1.70329881 2.81625938 -5.00576973 0 384.055481 277.819305 100 100 100 -1.57079637 0 0 -0.700786114 0.208978251 0.66281575 0.248784438 0.605040312 0 
0.293951511 1.26279056 -1.62028432 0 384.055481 277.819305 100 100 100 -1.57079649 0 0 0 -1 1.62920671e-07 0.327051342 0.257867098 0 
0.597970784 5.76994324 -5.12684679 0 384.055481 277.819305 100 100 100 -1.57079661 0 0 -0.881062925 -0.26273644 -0.202487022 0.548169374 0.6616081 0 
-0.141041607 5.58956957 -1.00758791 0 384.055481 277.819305 100 100 100 -1.57079649 0 0 -0.442760378 0.219372183 0.842700362 0.707771063 0.515569091 0 
0.660125434 6.10068655 5.67910242 0 384.055481 277.819305 100 100 100 -1.57079649 0 0 0.228249207 0.0680648312 0.893600702 0.573335171 0.679431736 0 
2.06344867 1.68237102 -5.05893183 0 384.055481 277.819336 100 100 100 -1.57079649 0 0 0.853655517 0.254563898 0.276206762 0.183483243 0.697208047 0 
-0.872902393 5.71236992 5.56858921 0 384.055481 277.819305 100 100 100 -1.57079649 0 0 -0.923355937 0.275347888 0.0884737968 0.502174616 0.614509225 0 
0.0615816712 1.32669759 -2.67749333 0 384.055481 277.819305 100 100 100 -1.57079649 0 0 0 1 -1.62920671e-07 0.454809874 0.256596833 0 
-0.190202072 4.84825993 3.64831924 0 384.055481 277.819305 100 100 100 -1.57079649 0 0 0.459651113 -0.0105372369 -0.842700303 0.700600505 0.617915332 0 
-0.114515617 7.78405237 -0.817539334 0 384.05545 277.819305 99.9999924 99.9999924 99.9999924 -1.57079649 0 0 -0.884972215 -0.429289579 6.93764548e-08 0.405997157 0.729996026 0 
0.442253292 6.30324411 -5.0615592 0 384.055481 277.819305 100 100 100 -1.57079649 0 0 -0.862161577 -0.257099956 0.256023645 0.594898701 0.655698776 0 
-0.436118275 1.2627914 2.66734457 0 384.055481 277.819305 100 100 100 -1.57079649 0 0 0 -1 1.62920657e-07 0.211497799 0.164660931 0 
0.0212023556 1.32669842 2.34643722 0 384.055481 277.819275 100 100 100 -1.57079649 0 0 0 1 -1.62920671e-07 0.461200953 0.131678462 0 
-0.0160469953 7.71450138 -2.72675276 0 384.055481 277.819305 99.9999924 99.9999924 99.9999924 -1.57079661 0 0 -0.124010585 -0.966771424 1.55783624e-07 0.524045646 0.737837076 0 
2.12713265 0.667603433 -5.1452589 0 384.055481 277.819305 100 100 100 -1.57079649 0 0 -0.815543234 -0.243197262 -0.349385083 0.100162968 0.663284719 0 
-0.521277368 6.51669931 -5.22704697 0 384.055481 277.819305 100 100 100 -1.57079649 0 0 -0.111109525 0.0331327356 -0.938535213 0.575455189 0.628918409 0 
1.21440184 3.67592812 5.54708624 0 384.055511 277.819305 100.000008 100.000008 100.000008 -1.57079649 0 0 -0.932389081 -0.278041601 -0.0666893497 0.364569992 0.658178926 0 
-0.255736858 7.59021711 5.45015335 0 384.055481 277.819305 100.000008 100.000008 100.000008 -1.57079661 0 0 -0.49217689 0.146768704 -0.789454937 0.668363094 0.602685034 0 
1.75796902 1.9122951 -5.15010595 0 384.055481 277.819305 100 100 100 -1.57079649 0 0 -0.809262395 -0.241324902 -0.376733065 0.209356159 0.663720787 0 
0.054874517 7.08378983 1.51108468 0 384.055481 277.819305 100 100 100 -1.57079649 0 0 0.848145366 -0.0332834274 0.459001243 0.40091756 0.442020267 0 
-2.42004561 0.240573034 -5.21577692 0 384.055481 277.819305 100 100 100 -1.57079649 0 0 -0.385805458 0.115047157 -0.83231461 0.0239462424 0.626529336 0 
0.314866185 6.7819829 5.63014698 0 384.055481 277.819305 100 100 100 -1.57079649 0 0 -0.769623041 -0.229504079 0.509862125 0.636549354 0.665688932 0 
0.0638254359 7.74002504 -4.84762335 0 384.055481 277.819305 100 100 100 -1.57079649 0 0 -0.533574879 0.832450569 -1.35623424e-07 0.680186272 0.743384957 0 
0.0246233679 7.96240473 -0.290940136 0 384.055481 277.819305 100 100 100 -1.57079649 0 0 0.19028832 0.94901228 -1.54488788e-07 0.373436987 0.762133121 0 
-1.30127811 4.06799936 -4.98998499 0 384.055481 277.819305 100 100 100 -1.57079649 0 0 -0.497890383 0.148473114 0.780194819 0.359339952 0.602262974 0 
0.476531178 6.40453291 -5.21165323 0 384.055481 277.819305 100.000008 100.000008 100.000008 -1.57079649 0 0 -0.433053464 -0.129138261 -0.807595789 0.60223949 0.67126596 0 
0.522720635 6.07105064 5.49263954 0 384.055481 277.819305 100 100 100 -1.57079649 0 0 -0.789033175 -0.235292405 -0.447672307 0.574248433 0.65324676 0 
-1.29251659 3.41014767 5.56293011 0 384.055481 277.819305 100 100 100 -1.57079649 0 0 0.940068781 -0.280331731 0.0469225496 0.306526303 0.647443593 0 
0.122089259 7.86688757 0.412764788 0 384.055481 277.819275 100 100 100 -1.57079649 0 0 0.943501115 0.210856736 -3.42144872e-08 0.329926252 0.753032565 0 
-0.919294477 5.32463646 5.44516373 0 384.05545 277.819305 100 100 100 -1.57079649 0 0 -0.442829549 0.132053137 -0.804537058 0.469807982 0.601626635 0 
0.342336088 1.32669842 2.80871391 0 384.055481 277.819275 100 100 100 -1.57079649 0 0 0 1 -1.62920671e-07 0.410372764 0.204846352 0 
-0.72574228 5.49421883 5.45215273 0 384.055481 277.819305 100 100 100 -1.57079649 0 0 0.571997643 -0.170571744 -0.7453655 0.488128453 0.589072108 0 
-2.52234221 0.110076174 5.61973047 0 384.05545 277.819305 100.000008 100.000008 100.000008 -1.57079649 0 0 -0.80315274 0.239502966 0.430053085 0.0109688118 0.619135916 0 
0.284162611 1.26279044 -2.4882226 0 384.055481 277.819275 100 100 100 -1.57079649 0 0 0 -0.99999994 1.62920671e-07 0.325501919 0.120492183 0 
0.369576752 1.32669759 -2.4441669 0 384.055481 277.819305 100 100 100 -1.57079661 0 0 0 0.99999994 -1.62920671e-07 0.406061202 0.219666541 0 
-0.696664631 5.62770557 -5.206882 0 384.055481 277.819305 100 100 100 -1.57079649 0 0 0.498933017 -0.14878419 -0.778019488 0.499586642 0.636795998 0 
0.30790472 7.68620729 -4.97313023 0 384.055481 277.819305 100 100 100 -1.57079649 0 0 0 -1 1.62920671e-07 0.826388299 0.211546153 0 
-0.0821201354 1.32669759 -2.28032136 0 384.055481 277.819305 100 100 100 -1.57079649 0 0 0 1 -1.62920671e-07 0.47755456 0.193733528 0 
-1.00249922 5.02988768 -5.21136904 0 384.055481 277.819305 99.9999924 99.9999924 99.9999924 -1.57079649 0 0 -0.413330644 0.123255849 -0.817525685 0.444051474 0.625595331 0 
1.90932798 1.90286636 -5.22199678 0 384.055481 277.819305 100 100 100 -1.57079649 0 0 0.246761963 0.0735841021 -0.893905401 0.204958692 0.679210901 0 
-0.260704726 7.70031834 -5.16197109 0 384.055481 277.819305 100 100 100 -1.57079649 0 0 0 1 -1.62920671e-07 0.0677236766 0.173249573 0 
-0.149800971 1.26279068 -1.17660403 0 384.055481 277.819305 100 100 100 -1.57079649 0 0 0 -1 1.62920671e-07 0.256815374 0.328091681 0 
-0.216832474 1.26279056 -1.81793785 0 384.055481 277.819305 100 100 100 -1.57079637 0 0 0 -0.99999994 1.62920671e-07 0.246205747 0.226583093 0 
0.298732251 1.26279044 -2.4298737 0 384.055481 277.819275 99.9999924 99.9999924 99.9999924 -1.57079637 0 0 0 -1 1.62920671e-07 0.327807933 0.129727483 0 
-0.282887876 7.61058426 -5.16825199 0 384.055481 277.819305 100 100 100 -1.57079637 0 0 -0.740377367 0.220782459 -0.525651932 0.669352293 0.619743288 0 
0.995218813 4.45740938 -5.14096022 0 384.055481 277.819305 100 100 100 -1.57079649 0 0 -0.839183211 -0.250247836 -0.306593359 0.432826906 0.66288805 0 
-1.51224661 3.2747128 -4.97938395 0 384.055481 277.819305 100 100 100 -1.57079649 0 0 -0.316651165 0.0944266021 0.860206962 0.290328741 0.60001564 0 
-2.05055881 1.10503578 -4.98736382 0 384.055481 277.819305 100 100 100 -1.57079649 0 0 0.427118003 -0.127368316 0.811969161 0.102506489 0.590470672 0 
0.0612725914 7.72661924 -5.00985241 0 384.055481 277.819305 100 100 100 -1.57079649 0 0 0.473512441 -0.873122573 1.40914906e-07 0.665211797 0.742785811 0 
2.03759861 1.71890771 -5.0228281 0 384.055481 277.819305 100 100 100 -1.57079649 0 0 0.757077098 0.225764275 0.530558825 0.187049374 0.700474918 0 
-0.930988729 5.34161139 -5.20248556 0 384.055481 277.819305 100 100 100 -1.57079649 0 0 -0.561771393 0.167521626 -0.752829373 0.47089541 0.623712122 0 
0.0261398423 7.64445591 -1.19584167 0 384.055481 277.819305 100 100 100 -1.57079649 0 0 0.980286181 -0.0257745311 -0.195791543 0.764630079 0.23697722 0 
1.82611084 1.83080828 5.66390419 0 384.055481 277.819305 99.9999924 99.9999924 99.9999924 -1.57079649 0 0 -0.497709364 -0.148418471 0.781798422 0.2011507 0.670017302 0 
0.534701288 1.32669759 -2.17126131 0 384.055481 277.819305 100 100 100 -1.57079649 0 0 7.4663285e-06 1 -1.62920671e-07 0.379925728 0.176471815 0 
-0.556896627 1.35566282 -2.92054725 0 384.055481 277.819305 100 100 100 -1.57079649 0 0 1 0 0 0.752486348 0.895274699 0 
0.993500113 4.78776217 5.42850542 0 384.055511 277.819305 100 100 100 -1.57079661 0 0 -0.161729842 -0.0482285321 -0.928600609 0.459495872 0.712970376 0 
2.42934895 0.254469812 -5.21020699 0 384.055481 277.819275 100 100 100 -1.57079637 0 0 0.476178497 0.141996428 -0.78589344 0.0596018024 0.681712985 0 
0.0507694557 7.71543741 5.48799276 0 384.05545 277.819305 100 100 100 -1.57079649 0 0 -0.25881964 0.965925634 -1.57369243e-07 0.065492101 0.425222039 0 
-0.836518645 5.61627054 -5.20769072 0 384.055481 277.819305 100 100 100 -1.57079649 0 0 -0.467612505 0.13944304 -0.7940889 0.495303601 0.624815464 0 
-0.104054548 1.2627914 3.27438331 0 384.055481 277.819305 100 100 100 -1.57079649 0 0 0 -1 1.62920671e-07 0.264055878 0.0685804486 0 
0.495128393 1.26279128 2.58777881 0 384.055481 277.819275 100 100 100 -1.57079649 0 0 0 -1 1.62920671e-07 0.358893007 0.177254304 0 
1.87747693 1.54200006 -5.17203808 0 384.055481 277.819305 100 100 100 -1.57079649 0 0 -0.742719531 -0.221481472 -0.539584577 0.176638618 0.665706158 0 
2.12804461 0.950673759 -4.97433519 0 384.055481 277.819305 100 100 100 -1.57079637 0 0 -0.193814218 -0.0577960387 0.904214978 0.122957036 0.713825941 0 
-1.54038024 3.39082646 -5.02609539 0 384.055481 277.819305 100 100 100 -1.57079637 0 0 -0.757411778 0.225863919 0.517065883 0.299011528 0.606879711 0 
-1.91286385 1.52784956 -4.99217319 0 384.055511 277.819305 100 100 100 -1.57079649 0 0 0.51870054 -0.154678717 0.773950636 0.139896661 0.589451432 0 
-0.0383983627 7.7952714 -4.48435497 0 384.05545 277.819336 100.000008 100.000008 100.000008 -1.57079625 0 0 0 -8.5719563e-07 -1.00000024 0.680186331 0.743155479 0 
-0.437194794 6.71681118 -4.96247673 0 384.055481 277.819305 100 100 100 -1.57079649 0 0 0.0707555488 -0.0210991688 0.985239983 0.593605101 0.595748723 0 
0.118526354 7.83552551 -4.87903643 0 384.055481 277.819305 100 100 100 -1.57079649 0 0 -0.990868926 0.0340774506 -5.55192159e-09 0.680186212 0.751003683 0 
-0.295202613 1.32669842 2.33919692 0 384.055481 277.819305 100.000008 100.000008 100.000008 -1.57079649 0 0 0 1 -1.62920671e-07 0.511280715 0.130532473 0 
0.486734301 6.39938974 5.67342567 0 384.055481 277.819305 100 100 100 -1.57079649 0 0 -0.3731969 -0.111288428 0.836350679 0.601579547 0.672027171 0 
-1.52004099 3.46161342 -5.02795362 0 384.055481 277.819305 99.9999924 99.9999924 99.9999924 -1.57079649 0 0 -0.76258862 0.227407634 0.503741324 0.305205971 0.607047856 0 
-1.46685576 2.94732666 -5.19244337 0 384.055511 277.819336 100 100 100 -1.57079661 0 0 0.695754945 -0.20747745 -0.675765753 0.265031844 0.639508009 0 
0.103556804 7.89582825 5.56169271 0 384.055481 277.819305 100 100 100 -1.57079649 0 0 -0.872997344 -0.47398001 7.72211379e-08 0.00237978576 0.755212665 0 
-0.222521827 1.32669842 2.95796299 0 384.055481 277.819305 100 100 100 -1.57079649 0 0 0 1 -1.62920657e-07 0.499776989 0.228469104 0 
-0.0703267753 6.4640007 3.64831948 0 384.055481 277.819305 100 100 100 -1.57079649 0 0 -0.458003491 0.0309383944 -0.842698812 0.267643839 0.494685292 0 
0.0587043352 1.32669842 2.50347781 0 384.055481 277.819305 100.000008 100.000008 100.000008 -1.57079649 0 0 0 1 -1.62920671e-07 0.455265254 0.156534418 0 
-0.370632321 6.54823112 5.59649372 0 384.055481 277.819305 100 100 100 -1.57079661 0 0 0.854421616 -0.254791349 0.278694808 0.581617296 0.644405365 0 
-1.67485392 2.19352555 -5.15191364 0 384.055511 277.819305 100 100 100 -1.57079649 0 0 0.806041539 -0.240365222 -0.38783282 0.19927372 0.643175602 0 
-0.257787228 4.57468319 -3.22469544 0 384.055481 277.819305 100 100 100 -1.57079649 0 0 -0.842278123 0.0391922817 0.45901674 0.415377319 0.444525123 0 
-0.0530418791 7.7244153 3.24266982 0 384.055481 277.819305 100 100 100 -1.57079649 0 0 -0.409905702 -0.890166163 1.43303026e-07 0.154950589 0.735467196 0 
-1.69823396 2.22784853 -5.20179462 0 384.055481 277.819305 100 100 100 -1.57079649 0 0 0.571881235 -0.170537755 -0.748918772 0.201478347 0.637874842 0 
0.173321888 7.63685751 -4.96359587 0 384.055481 277.819305 100 100 100 -1.57079649 0 0 -0.020210512 -0.00602627359 0.979124606 0.708859563 0.710382104 0 
-0.297564149 1.2627914 2.72344923 0 384.055481 277.819305 100 100 100 -1.57079649 0 0 0 -1 1.62920671e-07 0.233427703 0.155780837 0 
0.0232160054 7.68110752 -4.98684978 0 384.055481 277.819305 100 100 100 -1.57079649 0 0 0 1 -1.62920657e-07 0.852646708 0.0580498464 0 
-1.05610526 5.10840321 -5.10292625 0 384.055481 277.819305 100 100 100 -1.57079661 0 0 -0.945143342 0.281846136 -0.0338603184 0.449091583 0.613832235 0 
1.78114676 1.79572153 -5.12213802 0 384.055481 277.819305 100 100 100 -1.57079649 0 0 -0.889208496 -0.265165061 -0.174099565 0.199403316 0.661190212 0 
0.107629925 1.26279128 2.58093166 0 384.055481 277.819305 100 100 100 -1.57079649 0 0 0 -1 1.62920671e-07 0.297560781 0.178338096 0 
-0.0636131465 7.72724724 0.464928746 0 384.055481 277.819305 100 100 100 -1.57079649 0 0 -0.491600037 -0.868276179 1.39736713e-07 0.326700985 0.734791636 0 
0.0431244746 7.73253632 5.63577509 0 384.055481 277.819305 100 100 100 -1.57079649 0 0 -0.363545209 0.902588248 -1.47050287e-07 0.00237974455 0.741872907 0 
-0.575741231 1.26279151 3.35961604 0 384.055481 277.819305 100 100 100 -1.57079649 0 0 0 -1 1.62920671e-07 0.189398557 0.0550900549 0 
-2.03841591 1.0048269 -5.17385387 0 384.055481 277.819305 100 100 100 -1.57079649 0 0 0.732118487 -0.21832037 -0.558290541 0.0947211459 0.641190112 0 
-0.0922945291 7.92407274 5.54456043 0 384.055481 277.819336 100 100 100 -1.57079649 0 0 -0.713248372 0.652776957 -1.06350861e-07 0.0126224933 0.770266056 0 
0.815045357 5.63476896 5.67248249 0 384.055481 277.819305 100 100 100 -1.57079649 0 0 0.353017867 0.105271235 0.842944384 0.532056332 0.680835962 0 
-0.226757661 1.26279128 2.386724 0 384.055481 277.819305 100 100 100 -1.57079649 0 0 0 -1 1.62920671e-07 0.244634792 0.209076777 0 
-0.511873126 1.32669842 2.16839457 0 384.055481 277.819305 100.000008 100.000008 100.000008 -1.57079649 0 0 -4.12186228e-06 1.00000012 -1.62920671e-07 0.545574665 0.103498369 0 
0.223832145 4.00376129 -3.22920847 0 384.055481 277.819305 100 100 100 -1.57079649 0 0 -0.822619319 -0.282220423 0.0739051998 0.159967452 0.295156658 0 
-0.407156199 1.32669842 2.6395843 0 384.055481 277.819336 99.9999924 99.9999924 99.9999924 -1.57079649 0 0 0 1 -1.62920671e-07 0.529000401 0.178076982 0 
-2.04056883 0.912961245 -5.11291504 0 384.055481 277.819336 100 100 100 -1.57079649 0 0 0.91413784 -0.272599041 -0.108750008 0.0872646421 0.646704674 0 
-0.193325147 1.3266983 2.00410962 0 384.055481 277.819305 100 100 100 -1.57079661 0 0 0 1 -1.62920685e-07 0.495155811 0.0774957687 0 
0.100036189 7.76287508 1.65854144 0 384.055481 277.819305 100 100 100 -1.57079661 0 0 0.773075998 -0.59294945 9.57804573e-08 0.252898663 0.746093392 0 
0.137208328 1.26279044 -2.7704339 0 384.05545 277.819305 99.9999924 99.9999924 99.9999924 -1.57079649 0 0 0 -1 1.62920657e-07 0.302242368 0.0758245513 0 
0.575741231 1.35566318 -1.65226698 0 384.055481 277.819305 100 100 100 -1.57079649 0 0 -1.21542007e-05 1 -1.62920671e-07 0.184635952 0.252807051 0 
0.195121557 7.41492891 5.67807484 0 384.055481 277.819305 100 100 100 -1.57079637 0 0 -0.318179697 -0.0948821083 0.866910517 0.690446258 0.673010826 0 
0.233861551 4.48685884 3.71598482 0 384.055481 277.819305 100 100 100 -1.57079649 0 0 0.846042335 0.0671286881 -0.191674083 0.761702478 0.95144248 0 
0.246023595 7.11608267 5.45052624 0 384.055481 277.819305 100 100 100 -1.57079649 0 0 -0.571007192 -0.170276403 -0.738356709 0.665135086 0.717635632 0 
0.0651031658 7.72794151 -0.380248636 0 384.055481 277.819305 100 100 100 -1.57079649 0 0 0.503115058 -0.86291045 1.39278455e-07 0.37895906 0.743039489 0 
-1.59752262 2.48175883 -5.17272615 0 384.055481 277.819275 99.9999924 99.9999924 99.9999924 -1.57079637 0 0 0.749843657 -0.223606959 -0.535242915 0.224365249 0.641292274 0 
0.124191441 7.85904312 5.46157074 0 384.055481 277.819305 100 100 100 -1.57079649 0 0 0.959746718 0.150227398 -2.43765221e-08 0.0177537799 0.752530932 0 
-0.0973220989 6.14057922 -3.19157648 0 384.055481 277.819305 100 100 100 -1.57079649 0 0 -0.521863043 0.277802736 0.726008415 0.757476985 0.415026158 0 
-0.996515214 4.43238163 -5.12607193 0 384.055481 277.819305 100 100 100 -1.57079649 0 0 0.880660653 -0.262617052 -0.199833319 0.396035135 0.645513773 0 
0.716525733 6.171597 -5.15732241 0 384.05545 277.819305 100 100 100 -1.57079649 0 0 0.785471678 0.234229699 -0.432258457 0.577695549 0.688297451 0 
-0.464333355 1.26279151 3.59426117 0 384.055481 277.819305 100 100 100 -1.57079649 0 0 0 -1 1.62920671e-07 0.207032025 0.017951047 0 
1.85116374 2.16920519 -4.98321581 0 384.055481 277.819305 100 100 100 -1.57079649 0 0 0.390004247 0.116301231 0.827754498 0.22782366 0.706230283 0 
0.0986048952 7.91776228 4.41076231 0 384.055481 277.819305 100 100 100 -1.57079649 0 0 0.762014925 0.604010344 -9.8077507e-08 0.0827262774 0.756604791 0 
-0.0478597395 1.26279056 -1.75668645 0 384.055481 277.819305 100 100 100 -1.57079649 0 0 0 -1 1.62920671e-07 0.272950292 0.236277789 0 
0.00319889071 7.96814489 -4.02047491 0 384.055481 277.819305 100.000008 100.000008 100.000008 -1.57079661 0 0 0.024720652 0.993376017 -1.61825255e-07 0.604037762 0.763502896 0 
-2.0075376 1.04836619 -5.13065243 0 384.055481 277.819305 100 100 100 -1.57079649 0 0 0.861466944 -0.256892532 -0.239279777 0.0989727825 0.645099521 0 
-1.075302 5.04714012 -5.0957222 0 384.055481 277.819275 100 100 100 -1.57079649 0 0 -0.951383531 0.283706993 0.0177985579 0.443692207 0.613180339 0 
-0.463988066 1.3266983 1.70723486 0 384.055481 277.819305 100 100 100 -1.57079661 0 0 0 1 -1.62920671e-07 0.537995517 0.0305072591 0 
-0.22942239 1.32669854 3.18483615 0 384.055511 277.819305 100.000008 100.000008 100.000008 -1.57079661 0 0 0 1 -1.62920671e-07 0.500869215 0.264377981 0 
0.114228129 1.32669842 3.02682328 0 384.055481 277.819305 100 100 100 -1.57079637 0 0 0 1 -1.62920671e-07 0.446477115 0.239368111 0 
-0.234712437 7.55676317 -4.97913074 0 384.05545 277.819305 100.000008 100.000008 100.000008 -1.57079649 0 0 -0.261570483 0.078002058 0.875107288 0.666172087 0.599963069 0 
0.0472396091 7.72285938 -3.24581289 0 384.055511 277.819305 100 100 100 -1.57079649 0 0 0.365066081 -0.902180791 1.4556008e-07 0.556139588 0.741887331 0 
0.46564281 1.32669854 3.27510643 0 384.055511 277.819305 100 100 100 -1.57079649 0 0 0 1 -1.62920671e-07 0.390856177 0.278665721 0 
-0.304155231 4.0013752 3.68287706 0 384.055481 277.819305 100 100 100 -1.57079649 0 0 -0.862639844 -0.212526247 -0.459004462 0.53488636 0.901417971 0 
-0.470214009 1.32669747 -2.97192502 0 384.05545 277.819305 99.9999924 99.9999924 99.9999924 -1.57079637 0 0 0 1 -1.62920657e-07 0.53898102 0.303198665 0 
0.284270674 1.26279128 2.26905632 0 384.055481 277.819275 100 100 100 -1.57079649 0 0 0 -0.99999994 1.62920671e-07 0.325519025 0.22770083 0 
0.414904714 1.32669842 2.9753263 0 384.055481 277.819305 100 100 100 -1.57079637 0 0 0 1 -1.62920657e-07 0.39888677 0.23121731 0 
0.0504390895 7.72371769 3.36941957 0 384.055481 277.819305 100 100 100 -1.57079649 0 0 0.389791578 -0.895555556 1.44500987e-07 0.147113472 0.742090821 0 
1.82424164 2.29953265 -4.98816204 0 384.05545 277.819305 100.000008 100.000008 100.000008 -1.57079649 0 0 0.471543878 0.140616819 0.791108012 0.238974929 0.705181539 0 
-0.477227956 1.53567803 -3.15798736 0 384.055481 277.819305 100 100 100 -1.57079649 0 0 -0.503899455 0.560940683 0.656833947 0.0292069018 0.283734262 0 
2.2273252 0.705193758 5.69105721 0 384.05545 277.819275 100 100 100 -1.57079637 0 0 0.00385844707 0.00115075335 0.979611576 0.100784823 0.67577523 0 
-0.732522249 5.66391659 5.68438911 0 384.05545 277.819275 100 100 100 -1.57079649 0 0 0.172907442 -0.0515614375 0.927164972 0.50164324 0.63269943 0 
-0.056223616 7.95393705 -1.93144333 0 384.055481 277.819305 100 100 100 -1.57079661 0 0 -0.434493691 0.883577704 -1.43953073e-07 0.47487089 0.767306685 0 
-0.26462099 7.45271778 -4.97866774 0 384.055511 277.819305 100 100 100 -1.57079661 0 0 -0.25541535 0.0761665553 0.87767148 0.657067239 0.599864841 0 
0.376717299 3.10415649 1.50032699 0 384.055481 277.819305 100 100 100 -1.57079649 0 0 0.861218929 -0.194957703 -0.459003866 0.809033394 0.545905173 0 
-2.07624912 1.64541852 -5.06323195 0 384.055481 277.819336 100.000008 100.000008 100.000008 -1.57079649 0 0 -0.865290463 0.258033425 0.245762557 0.145446196 0.610239625 0 
0.141119912 1.26279056 -2.1136322 0 384.055481 277.819275 100 100 100 -1.57079649 0 0 0 -1 1.62920671e-07 0.302861512 0.179781348 0 
-0.105434053 7.76827192 -3.88044119 0 384.055481 277.819305 100 100 100 -1.57079637 0 0 -0.814790249 -0.551235259 8.90017233e-08 0.595379233 0.731162906 0 
0.414233029 1.26279056 -1.46863329 0 384.055511 277.819336 100.000008 100.000008 100.000008 -1.57079661 0 0 0 -1 1.62920685e-07 0.346089184 0.281869978 0 
0.261638224 7.70031834 -5.13020897 0 384.055481 277.819305 99.9999924 99.9999924 99.9999924 -1.57079649 0 0 0 1 -1.62920671e-07 0.0703951493 0.217182934 0 
-0.477699459 6.15349388 5.57079554 0 384.055481 277.819336 100 100 100 -1.57079649 0 0 0.920201242 -0.274407089 0.101006031 0.547228038 0.646731019 0 
0.456382006 1.43609476 3.753901 0 384.055481 277.819305 100 100 100 -1.57079649 0 0 -0.502822697 -0.0655638203 0.859095693 0.128506348 0.122092888 0 
0.575741231 1.3556633 -1.11336482 0 384.055481 277.819275 100 100 100 -1.57079649 0 0 1 0 0 0.972723961 0.0135013312 0 
-0.381603092 1.26279068 -1.12949085 0 384.055511 277.819305 100.000008 100.000008 100.000008 -1.57079649 0 0 0 -1 1.62920685e-07 0.220126316 0.335548639 0 
0.22992754 7.68620729 -5.2374382 0 384.055511 277.819305 99.9999924 99.9999924 99.9999924 -1.57079649 0 0 0 -1 1.62920671e-07 0.848618865 0.204987675 0 
-0.211889818 1.2627914 3.01113367 0 384.055481 277.819275 100 100 100 -1.57079649 0 0 0 -1 1.62920657e-07 0.246987998 0.110246897 0 
-1.52024961 3.43057299 -5.19029665 0 384.055481 277.819275 99.9999924 99.9999924 99.9999924 -1.57079649 0 0 -0.701735914 0.209259182 -0.660371959 0.302699089 0.621738553 0 
0.989232898 5.09945202 5.44631863 0 384.055511 277.819336 100 100 100 -1.57079637 0 0 0.466283947 0.13904734 -0.794148207 0.484720945 0.705183208 0 
-0.318533719 3.82356977 1.50893104 0 384.055481 277.819305 100 100 100 -1.57079649 0 0 -0.86136961 -0.19672817 0.275251567 0.454346061 0.489355117 0 
-0.575741231 1.35566401 2.61753035 0 384.055481 277.819336 100 100 100 -1.57079649 0 0 1.73990702e-05 1 -1.62920685e-07 0.00238232035 0.17254746 0 
0.411150396 1.68750334 3.69363523 0 384.055481 277.819305 100 100 100 -1.57079649 0 0 -0.836333632 -0.112733409 0.459004939 0.229074657 0.939522862 0 
0.101646364 6.07673025 3.72819304 0 384.055481 277.819305 100 100 100 -1.57079649 0 0 0.474644274 -0.174853623 0.842700243 0.56948936 0.904373765 0 
0.421616614 1.32669759 -2.21797204 0 384.055481 277.819336 100 100 100 -1.57079649 0 0 0 1 -1.62920671e-07 0.397824466 0.183865041 0 
0.0234093331 7.69982195 5.54512024 0 384.05545 277.819305 100 100 100 -1.57079661 0 0 0.258819699 -0.965925634 1.57369243e-07 0.690856576 0.124318324 0 
-1.72583938 2.74515271 -5.00899553 0 384.055481 277.819305 100 100 100 -1.57079649 0 0 -0.7097736 0.211658373 0.639682591 0.242511317 0.605332255 0 
-2.2878027 0.825420439 5.45627689 0 384.05545 277.819305 99.9999924 99.9999924 99.9999924 -1.57079649 0 0 -0.661555648 0.197278023 -0.694545805 0.0742658675 0.603980839 0 
0.428669125 1.26279056 -1.54640782 0 384.055481 277.819305 100 100 100 -1.57079649 0 0 0 -1 1.62920671e-07 0.348374099 0.269560039 0 
0.318976343 7.6659584 -5.00839424 0 384.055511 277.819305 100.000008 100.000008 100.000008 -1.57079673 0 0 0 -1 1.62920699e-07 0.820657432 0.0744757205 0 
-0.458447963 1.32669842 2.82588482 0 384.055481 277.819305 100 100 100 -1.57079649 0 0 0 1 -1.62920671e-07 0.537118733 0.20756413 0 
-0.73931849 5.52441359 -5.21179104 0 384.055481 277.819336 100 100 100 -1.57079649 0 0 0.413912237 -0.123430796 -0.816910386 0.490236104 0.63575542 0 
0.193607733 7.21063185 5.64599848 0 384.055481 277.819305 100.000008 100.000008 100.000008 -1.57079637 0 0 -0.734334648 -0.218980938 0.613476157 0.674014986 0.667122543 0 
1.70406556 2.78172922 5.45612764 0 384.055481 277.819305 100 100 100 -1.57079649 0 0 0.633980751 0.189055085 -0.72011447 0.280728132 0.703107178 0 
-0.878564954 5.1864357 -5.22772169 0 384.055481 277.819305 100.000008 100.000008 100.000008 -1.57079649 0 0 0.13546592 -0.0403975323 -0.940691829 0.459648252 0.632378459 0 
-0.233861402 1.32669759 -2.22530079 0 384.055481 277.819305 100 100 100 -1.57079649 0 0 0 1 -1.62920671e-07 0.501571774 0.185025007 0 
-0.126794562 1.26279128 2.20877576 0 384.055481 277.819305 100 100 100 -1.57079649 0 0 0 -1 1.62920671e-07 0.260456711 0.237241954 0 
-0.260055304 7.20940733 -5.22140408 0 384.055481 277.819305 99.9999924 99.9999924 99.9999924 -1.57079649 0 0 0.288948923 -0.0861656889 -0.880751193 0.63756609 0.63371712 0 
-0.0625143498 7.71030045 5.52905226 0 384.055481 277.819305 100 100 100 -1.57079649 0 0 -0.258819282 -0.965925753 1.57369286e-07 0.625157893 0.136185572 0 
0.69697082 5.41817999 5.57079124 0 384.055481 277.819305 100 100 100 -1.57079649 0 0 -0.918762088 -0.273977906 0.102619879 0.51743573 0.660320401 0 
0.394277006 1.26279044 -2.40964794 0 384.055481 277.819336 100 100 100 -1.57079649 0 0 0 -1 1.62920671e-07 0.342930555 0.132928759 0 
-0.317383438 1.32669842 2.6202724 0 384.05545 277.819275 100 100 100 -1.57079649 0 0 0 1 -1.62920671e-07 0.514791429 0.175020367 0 
-0.130248904 1.32669854 3.17436767 0 384.05545 277.819305 100 100 100 -1.57079649 0 0 0 1 -1.62920657e-07 0.485172302 0.262721062 0 
0.552656472 1.26279116 1.59830987 0 384.055481 277.819336 100 100 100 -1.57079661 0 0 0 -1 1.62920671e-07 0.36799854 0.333864748 0 
0.0982018709 7.90480137 -5.15590811 0 384.055481 277.819305 100 100 100 -1.57079649 0 0 -0.820958316 -0.545067072 8.88027074e-08 0.680186272 0.755936086 0 
-0.0293480121 1.32669842 2.27795148 0 384.055481 277.819305 100 100 100 -1.57079637 0 0 0 1 -1.62920671e-07 0.469201922 0.120838724 0 
1.36740518 3.41616344 5.66972446 0 384.055481 277.819305 100 100 100 -1.57079649 0 0 -0.410374641 -0.122374967 0.818830669 0.339955449 0.671248198 0 
-0.0695108771 7.94685602 1.57008564 0 384.055481 277.819305 100 100 100 -1.57079649 0 0 -0.537177086 0.828848481 -1.35036558e-07 0.258368015 0.768271565 0 
1.4963901 2.75771499 5.58542109 0 384.055481 277.819305 100 100 100 -1.57079649 0 0 -0.877411962 -0.261647165 0.208196327 0.283783138 0.661649764 0 
-0.0953102633 1.26279068 -1.38411856 0 384.055481 277.819305 100 100 100 -1.57079649 0 0 0 -1 1.62920671e-07 0.265439987 0.29524684 0 
0.12400914 7.8194828 -0.0701679513 0 384.055481 277.819305 100 100 100 -1.57079649 0 0 0.958337843 -0.155485243 2.5127596e-08 0.359786421 0.74999845 0 
-0.965644598 4.50202656 5.5529089 0 384.055481 277.819305 100 100 100 -1.57079649 0 0 0.948610306 -0.282878816 -0.0249371771 0.402390301 0.579089582 0 
-1.65359402 2.91994286 -5.20229626 0 384.055511 277.819305 100 100 100 -1.57079649 0 0 -0.568437099 0.169508755 -0.749050617 0.258336246 0.623672366 0 
1.26210117 3.54268312 5.58491659 0 384.055481 277.819305 100 100 100 -1.57079649 0 0 -0.878816247 -0.262065947 0.204581663 0.352683872 0.661602497 0 
0.0898405463 7.91316319 -4.65482616 0 384.05545 277.819275 99.9999924 99.9999924 99.9999924 -1.57079649 0 0 -0.751058459 -0.614966869 1.00190832e-07 0.680186212 0.756726742 0 
-0.262546211 3.52497649 -1.04214585 0 384.055481 277.819305 100 100 100 -1.57079649 0 0 0.859594941 0.174815461 0.458996475 0.892908335 0.396488339 0 
-1.42218781 3.7205472 5.65744114 0 384.055481 277.819305 100 100 100 -1.57079649 0 0 -0.620390177 0.185002536 0.726114392 0.328428388 0.623028159 0 
-0.324952006 7.51374102 -5.13642025 0 384.055481 277.819305 100 100 100 -1.57079661 0 0 -0.839890122 0.250457495 -0.286284775 0.660535753 0.616863132 0 
-1.33810794 3.57805371 -5.21940327 0 384.055481 277.819336 100 100 100 -1.57079649 0 0 0.27596432 -0.0822945014 -0.878169179 0.318964213 0.634142041 0 
-0.389907807 7.02203178 -4.97736502 0 384.055481 277.819305 100 100 100 -1.57079649 0 0 -0.241254359 0.0719435662 0.884415329 0.619342506 0.599588573 0 
-0.750081956 5.97527075 -5.19915056 0 384.055481 277.819336 100 100 100 -1.57079649 0 0 -0.610152185 0.181948975 -0.735298693 0.526316583 0.623004973 0 
0.524038136 1.32669854 3.39436817 0 384.055481 277.819305 100 100 100 -1.57079649 0 0 6.8295285e-06 1 -1.62920671e-07 0.381613553 0.297542095 0 
0.000974394672 7.13921833 3.68287706 0 384.055481 277.819305 100 100 100 -1.57079649 0 0 -0.388379872 -0.711206436 -0.568552792 0.9883039 0.710813046 0 
0.127539784 7.84654617 -1.15035844 0 384.055481 277.819305 100 100 100 -1.57079649 0 0 0.985622406 0.0536577664 -8.70673222e-09 0.426575571 0.751730502 0 
-0.0370876044 1.32669759 -2.60632038 0 384.055481 277.819305 100 100 100 -1.57079649 0 0 0 1 -1.62920685e-07 0.470426977 0.245331764 0 
0.509103775 1.32669747 -3.15388656 0 384.055481 277.819275 100 100 100 -1.57079637 0 0 3.78099094e-06 1 -1.62920671e-07 0.383977294 0.331999063 0 
-0.143995374 1.2627914 3.21181011 0 384.055481 277.819305 100 100 100 -1.57079649 0 0 0 -1 1.62920671e-07 0.25773415 0.0784843713 0 
0.266950995 1.32669783 -1.15817499 0 384.05545 277.819305 100 100 100 -1.57079649 0 0 0 1 -1.62920657e-07 0.422304511 0.0161232091 0 
0.0981242359 7.76096249 -0.316295028 0 384.055481 277.819305 100 100 100 -1.57079649 0 0 0.758300424 -0.607724965 9.81611876e-08 0.375004679 0.745926499 0 
0.586285949 5.83226538 5.51108742 0 384.055481 277.819305 100 100 100 -1.57079649 0 0 -0.836535394 -0.249457717 -0.319799781 0.553473353 0.654916644 0 
-0.271262825 1.32669771 -1.55212963 0 384.055481 277.819305 99.9999924 99.9999924 99.9999924 -1.57079649 0 0 0 1 -1.62920657e-07 0.507491529 0.0784772784 0 
-2.05156612 1.70316803 -5.04521704 0 384.055481 277.819305 100 100 100 -1.57079649 0 0 -0.816960394 0.243621469 0.37283662 0.150694311 0.608609498 0 
-2.53472137 0.139925152 -5.08623648 0 384.055481 277.819305 100 100 100 -1.57079649 0 0 -0.928940296 0.277012825 0.0812991709 0.0130773708 0.612320662 0 
-0.727952003 5.33133078 5.52971125 0 384.055481 277.819305 100 100 100 -1.57079649 0 0 0.884767234 -0.263840586 -0.190391362 0.474946529 0.581189036 0 
-0.0921735913 7.92419243 -3.58779764 0 384.055481 277.819305 99.9999924 99.9999924 99.9999924 -1.57079649 0 0 -0.712313771 0.653711498 -1.06503116e-07 0.577284873 0.770249963 0 
-0.119999453 7.87468672 -0.462132871 0 384.055481 277.819305 100 100 100 -1.57079649 0 0 -0.927351058 0.271129608 -4.41726229e-08 0.384022117 0.773886323 0 
0.688295603 5.75796318 -5.21950483 0 384.055481 277.819305 100 100 100 -1.57079649 0 0 -0.288256168 -0.0859593898 -0.874674678 0.545032918 0.672931671 0 
-0.242657512 1.32669759 -2.57977414 0 384.055481 277.819305 100 100 100 -1.57079649 0 0 0 1 -1.62920671e-07 0.50296402 0.241130099 0 
0.814673364 5.87445164 5.59247923 0 384.055481 277.819305 100 100 100 -1.57079649 0 0 0.854183078 0.25472033 0.262467504 0.551385045 0.690381587 0 
0.0214810073 7.72673702 5.24417496 0 384.055481 277.819305 100.000008 100.000008 100.000008 -1.57079661 0 0 -0.181087837 0.951477647 -1.55015385e-07 0.00237976597 0.740361631 0 
0.100120209 7.91624641 0.419813365 0 384.055481 277.819305 100 100 100 -1.57079649 0 0 0.773725271 0.592300057 -9.61696571e-08 0.329490453 0.756471515 0 
0.320612997 7.53824902 -5.12925148 0 384.055481 277.819305 100 100 100 -1.57079649 0 0 0.862002254 0.257050931 -0.232685 0.697370529 0.690835357 0 
-0.413261145 1.2627914 3.06112003 0 384.055481 277.819305 100 100 100 -1.57079649 0 0 0 -1 1.62920671e-07 0.215115488 0.102335207 0 
0.0789402649 1.32669771 -1.56233168 0 384.055481 277.819305 100.000008 100.000008 100.000008 -1.57079649 0 0 0 1 -1.62920671e-07 0.452062368 0.0800920278 0 
0.463527769 1.26279056 -1.74853551 0 384.055481 277.819305 100 100 100 -1.57079637 0 0 0 -0.99999994 1.62920671e-07 0.353891373 0.237567842 0 
-0.293729633 7.54960203 -5.18598032 0 384.055481 277.819305 100 100 100 -1.57079649 0 0 -0.685921609 0.204543561 -0.657973349 0.664176524 0.621347427 0 
-0.288236976 7.40695524 5.440979 0 384.055481 277.819336 100 100 100 -1.57079649 0 0 -0.330477476 0.098549366 -0.84956944 0.65281105 0.600740194 0 
0.471771955 1.31481087 3.6926434 0 384.055481 277.819305 100 100 100 -1.57079649 0 0 0 1.62920671e-07 1 0.882751703 0.671443284 0 
0.186713085 5.00621176 3.72819304 0 384.055481 277.819305 100 100 100 -1.57079649 0 0 0.341233939 -0.117142938 0.842700601 0.170324966 0.925642312 0 
1.9619832 1.97669661 -5.17054176 0 384.055511 277.819305 100.000008 100.000008 100.000008 -1.57079649 0 0 0.762631416 0.227418482 -0.512075663 0.209643915 0.687108278 0 
0.273015976 3.95771909 3.72819304 0 384.055481 277.819305 100 100 100 -1.57079649 0 0 0.450425386 0.124595605 0.842703462 0.549375057 0.915718436 0 
0.822116375 5.68375635 5.66350269 0 384.055481 277.819305 100 100 100 -1.57079661 0 0 0.507466078 0.151328206 0.777254283 0.535834968 0.682739496 0 
-0.460917681 1.26279032 -3.2344625 0 384.055481 277.819305 100 100 100 -1.57079649 0 0 0 -1.62920671e-07 -1 0.874518156 0.819066942 0 
1.99164987 1.45544887 -5.22792482 0 384.055481 277.819305 100 100 100 -1.57079649 0 0 -0.102724649 -0.0306338146 -0.944277823 0.166918829 0.674724877 0 
-0.532020807 6.7589941 -5.01653385 0 384.055481 277.819305 100 100 100 -1.57079649 0 0 -0.713287652 0.212705597 0.603568196 0.594725966 0.606015205 0 
-0.33458519 1.3266983 1.61017084 0 384.05545 277.819305 100 100 100 -1.57079649 0 0 0 1 -1.62920671e-07 0.51751405 0.0151442382 0 
-0.428375542 2.2369101 3.68481517 0 384.055481 277.819305 99.9999924 99.9999924 99.9999924 -1.57079637 0 0 0.784140885 -0.0528761335 -0.350540429 0.78080672 0.93492949 0 
0.059776824 6.46099329 3.72819257 0 384.055481 277.819305 100 100 100 -1.57079649 0 0 -0.455726802 -0.0591069013 0.842698932 0.142879546 0.216023803 0 
2.0007205 1.6708864 -4.98361158 0 384.055481 277.819305 100 100 100 -1.57079649 0 0 0.406436473 0.121201582 0.820234418 0.184065342 0.706146955 0 
-0.575741231 1.2627914 2.79670072 0 384.055481 277.819305 100 100 100 -1.57079649 0 0 0 -1 1.62920671e-07 0.189398587 0.14418678 0 
0.244520873 1.32669842 2.2809732 0 384.055481 277.819275 100 100 100 -1.57079649 0 0 0 1 -1.62920657e-07 0.425854683 0.121317007 0 
1.07157874 4.57353401 5.42262554 0 384.055511 277.819336 100 100 100 -1.57079649 0 0 -0.0612024739 -0.0182509404 -0.972980797 0.440352112 0.711724341 0 
-0.0998567939 7.91651011 3.63134408 0 384.055481 277.819305 99.9999924 99.9999924 99.9999924 -1.57079649 0 0 -0.771689355 0.594335914 -9.68296163e-08 0.130918458 0.770925999 0 
-0.443929493 1.26279128 1.90734076 0 384.055511 277.819305 100 100 100 -1.57079649 0 0 0 -1 1.62920657e-07 0.210261509 0.284952313 0 
0.37501201 1.32669842 3.00806212 0 384.055481 277.819336 100 100 100 -1.57079649 0 0 0 1 -1.62920685e-07 0.405200958 0.236398667 0 
-0.0998060927 1.26279044 -2.2318871 0 384.055511 277.819305 100 100 100 -1.57079649 0 0 0 -1 1.62920671e-07 0.264728338 0.161064297 0 
0.415627867 1.2627914 3.0920856 0 384.055511 277.819305 100.000008 100.000008 100.000008 -1.57079649 0 0 0 -1 1.62920671e-07 0.3463099 0.0974340215 0 
0.534266293 1.32669783 -1.25649774 0 384.055481 277.819305 100 100 100 -1.57079637 0 0 7.38983317e-06 1 -1.62920671e-07 0.379994571 0.0316854902 0 
2.30087852 0.194695875 -5.20028353 0 384.055481 277.819305 100 100 100 -1.57079649 0 0 -0.568421364 -0.169505179 -0.760578692 0.0578715391 0.668867886 0 
-0.47075057 1.75242198 3.68156266 0 384.055481 277.819275 100.000008 100.000008 100.000008 -1.57079649 0 0 -0.37107265 0.550251305 -0.581783473 0.916371942 0.71782136 0 
-1.07863116 4.98935652 5.52034044 0 384.055481 277.819275 100 100 100 -1.57079649 0 0 -0.857877374 0.255821913 -0.258476526 0.438954532 0.610143125 0 
0.109387569 6.4097147 3.69363523 0 384.055481 277.819305 100 100 100 -1.57079649 0 0 0.820505738 0.308444053 0.459006816 0.208613381 0.913888276 0 
-0.882582128 4.90596819 5.65014172 0 384.055481 277.819305 100 100 100 -1.57079649 0 0 0.697105706 -0.207879156 0.672290027 0.436945409 0.63955152 0 
-1.26364028 3.60475683 -5.02126789 0 384.055481 277.819305 100 100 100 -1.57079649 0 0 0.743962765 -0.221853286 0.551682472 0.322906315 0.585736334 0 
2.29614472 0.873088598 -5.03808546 0 384.055481 277.819305 100 100 100 -1.57079637 0 0 0.804771185 0.239986628 0.415272802 0.112663478 0.699095547 0 
-0.0726724193 7.94369364 -1.67816734 0 384.055481 277.819305 100 100 100 -1.57079637 0 0 -0.561609387 0.80441606 -1.31056026e-07 0.459210575 0.768546224 0 
-0.414773226 1.32669759 -2.33868694 0 384.055481 277.819305 100 100 100 -1.57079649 0 0 0 1 -1.62920671e-07 0.530206084 0.202971458 0 
-1.49906778 3.62114716 -5.10423517 0 384.055481 277.819336 100.000008 100.000008 100.000008 -1.57079649 0 0 -0.941496253 0.280758411 -0.043247804 0.318568885 0.61395061 0 
-1.03626812 4.27553415 -5.08728266 0 384.055511 277.819305 100 100 100 -1.57079649 0 0 0.9278723 -0.276695848 0.0783143863 0.382437289 0.579763114 0 
-0.415011078 6.4235239 -5.04073524 0 384.055481 277.819275 100 100 100 -1.57079649 0 0 0.808476388 -0.24109064 0.400441468 0.570499241 0.583975852 0 
-0.444172144 6.43683863 5.66042185 0 384.055481 277.819305 100 100 100 -1.57079661 0 0 0.590203702 -0.176000595 0.73191452 0.570871532 0.637779772 0 
-0.428987801 1.32669854 3.40049386 0 384.055511 277.819305 99.9999924 99.9999924 99.9999924 -1.57079649 0 0 0 1 -1.62920685e-07 0.532455921 0.298511684 0 
-1.97058511 1.21883512 5.49042559 0 384.055481 277.819305 99.9999924 99.9999924 99.9999924 -1.57079637 0 0 0.762928128 -0.22750783 -0.484897792 0.113601282 0.584742188 0 
-0.119875714 7.80405617 -3.18381286 0 384.055481 277.819305 100.000008 100.000008 100.000008 -1.57079649 0 0 -0.926394761 -0.274698347 4.43933352e-08 0.552306056 0.728717208 0 
-0.449943751 1.32669854 3.48466063 0 384.055511 277.819336 100 100 100 -1.57079649 0 0 0 1 -1.62920671e-07 0.535772741 0.311833352 0 
0.0894897655 7.76568937 -4.75333357 0 384.05545 277.819305 100 100 100 -1.57079649 0 0 -0.74812603 0.617899358 -1.00668579e-07 0.680186272 0.74581188 0 
-1.79081714 2.58472276 -5.14603901 0 384.055481 277.819336 100 100 100 -1.57079649 0 0 -0.825033844 0.246027812 -0.343013078 0.228018612 0.617733598 0 
2.29103541 0.140293866 -5.16133118 0 384.055481 277.819305 100 100 100 -1.57079649 0 0 -0.762442887 -0.227362469 -0.47317341 0.0537232384 0.664740086 0 
-0.999088168 5.27441454 -5.12106228 0 384.055481 277.819305 100 100 100 -1.57079661 0 0 -0.89414978 0.266639292 -0.164388075 0.463842541 0.61547333 0 
-0.102960147 1.3266983 1.75503838 0 384.055481 277.819305 100 100 100 -1.57079649 0 0 0 1 -1.62920671e-07 0.480853021 0.0380734839 0 
