ply
format ascii 1.0
comment created by gply, a Houdini tool.
comment converted from .[b]geo
comment for more information about Houdini, try:
comment www.sidefx.com
element vertex 710
property float x
property float y
property float z
property float uv1
property float uv2
property float uv3
element face 0
property list uchar int vertex_indices
end_header
-0.00106866774 -0.0149043221 0.12055441 0.565469265 0.324401975 0 
0.00503672333 0.0266572554 0.12841782 0.700341046 0.957247019 0 
-0.00110176043 0.013461126 0.111093804 0.91890806 0.524376154 0 
-0.00211177021 0.00613074191 0.129409701 0.0322270468 0.517912865 0 
-0.00415351894 -0.00477316463 0.099683553 0.966057897 0.919789314 0 
-0.00547146378 0.0208082758 0.118246868 0.797486782 0.0796081498 0 
-0.00147434114 0.0124128954 0.111202866 0.676676929 0.726995707 0 
1.6314596e-05 1.21349367e-05 0.132888958 0.427863747 0.176923141 0 
0.00669078808 0.0274997558 0.118743263 0.938626647 0.604294777 0 
-0.0139466533 0.0177444424 0.115430571 0.256967217 0.898476303 0 
-0.00471393112 0.00276989001 0.125321954 0.281953812 0.415376604 0 
0.00358445453 0.00802632887 0.130484521 0.00572733581 0.273194224 0 
-0.0037563541 0.00837386679 0.129387021 0.75566715 0.135308653 0 
-0.0128404498 0.0141336797 0.117132612 0.53414309 0.953987837 0 
0.00625002757 0.016202718 0.121368222 0.838250756 0.596117735 0 
-0.00905573182 0.0142664239 0.122207873 0.17421782 0.545557439 0 
-0.00669377949 -0.0220698398 0.118459463 0.455300003 0.412800014 0 
-0.00465276046 0.000406927953 0.125528097 0.122037679 0.379193038 0 
-0.0124677988 0.0123129291 0.119173564 0.653281152 0.51725477 0 
0.002162972 -0.00285452884 0.120754018 0.644468188 0.752200127 0 
-0.00431272155 0.0093922494 0.130093262 0.749548376 0.290393859 0 
0.0151926149 0.0162620507 0.123929262 0.491941839 0.992659569 0 
-0.0130285844 0.0145951165 0.117359929 0.390691578 0.911808372 0 
-0.00448692124 0.00204297015 0.102999404 0.0246011242 0.695696473 0 
-0.00266877026 -0.00251732697 0.106271967 0.765494525 0.164309889 0 
-0.0126699023 0.0141407186 0.117508106 0.394183338 0.90546608 0 
0.000378768716 0.000472353684 0.102046311 0.57706511 0.689369023 0 
-0.00371673773 0.0151799191 0.131041035 0.501679718 0.351932257 0 
-0.000615168654 -0.0111616543 0.118968137 0.466005504 0.1843009 0 
0.000191470477 0.0157743543 0.109165341 0.973227024 0.498640269 0 
0.000532486476 0.000363662781 0.133095562 0.13663967 0.649425983 0 
-0.00856525451 0.00334007945 0.122276478 0.257528394 0.590075254 0 
-0.00243814103 -0.00208212831 0.104593597 0.716161847 0.952217162 0 
-0.00860251952 0.0141711431 0.122461617 0.181982905 0.54469347 0 
0.0106077651 0.0138877546 0.115979344 0.865993202 0.762207448 0 
-0.00615654886 0.00876482297 0.12389183 0.06841328 0.856149912 0 
0.0110367592 0.0116158789 0.115958199 0.690299988 0.889400005 0 
0.00528179621 0.0153501369 0.120269395 0.0639585033 0.376632571 0 
0.000551849836 0.000710393069 0.10149204 0.578145027 0.696968436 0 
-0.00493794121 0.0202581137 0.129725233 0.145827517 0.364762217 0 
-0.00127471937 -0.00133113202 0.106829353 0.989881277 0.653943658 0 
0.00128780038 -1.5851052e-05 0.135523677 0.425014138 0.214037314 0 
-0.00275675138 -0.000277871964 0.12929371 0.814284801 0.617933512 0 
-0.00383257051 -0.00325358938 0.125211433 0.123083219 0.421127379 0 
0.0068560862 0.0102982093 0.116384476 0.773556769 0.00937954895 0 
0.00233267131 0.0119481171 0.12552081 0.896303415 0.628306925 0 
-0.00260811136 -0.0128423795 0.124054931 0.817514598 0.51821363 0 
-0.00911262352 -0.0079044709 0.103134356 0.788632095 0.0822115317 0 
-0.00319187273 0.0126551036 0.129971996 0.118567839 0.598997414 0 
-0.00242800824 0.00775813172 0.105999514 0.992222071 0.266619921 0 
0.000484848541 0.0173842479 0.135462508 0.95663166 0.997048318 0 
-0.00384678645 0.01015318 0.129970938 0.29544574 0.110082038 0 
0.000856890227 0.00169878779 0.110927634 0.184593275 0.710938811 0 
-0.00305366144 0.0123160873 0.130609468 0.273523748 0.442426801 0 
0.00849255174 0.00904205535 0.119561061 0.114346914 0.972550452 0 
0.00191882474 0.0066986708 0.114407778 0.593505681 0.435043693 0 
-0.00383646879 0.0107509326 0.130218372 0.291603446 0.102945685 0 
0.00481569301 0.024879599 0.128051475 0.645395398 0.242945179 0 
-0.00418224605 0.00395765016 0.126118422 0.505022764 0.816391706 0 
-0.00559124304 0.0160495583 0.119588934 0.842131078 0.407980025 0 
0.0150481807 0.00107034354 0.124798998 0.384542763 0.886568844 0 
-0.00268924912 -0.00428164378 0.12711221 0.391052872 0.216499031 0 
0.00201944914 0.00779613294 0.114131086 0.391343534 0.85310626 0 
0.00713203801 0.00182401226 0.143672884 0.89486742 0.652161062 0 
0.00205246545 0.00690546399 0.114615478 0.393947244 0.840709865 0 
0.0104829958 -0.000263678754 0.123210445 0.620310962 0.646617413 0 
-0.00301370118 0.00218609604 0.128494188 0.309767365 0.350775599 0 
0.00807967037 0.0206639618 0.122139327 0.0699733719 0.770287156 0 
0.00334072858 0.0100572482 0.124637336 0.468715519 0.571764946 0 
-0.0133965733 0.0157471076 0.116612963 0.856610537 0.34061116 0 
0.0195940081 -0.00047631652 0.129085034 0.0263652056 0.924710631 0 
-0.00272801612 -0.00250525866 0.103175245 0.927127481 0.545738637 0 
-0.00629708916 0.0252425168 0.130401894 0.290865898 0.284582019 0 
0.00277817994 0.0104119359 0.121336289 0.415098667 0.694835067 0 
0.00174263807 0.00510561327 0.109934628 0.772922397 0.098868072 0 
-0.00268541579 0.01457569 0.107333809 0.789781094 0.233773276 0 
-0.00266297814 0.00165634661 0.128757313 0.316843867 0.346375406 0 
-0.00362759503 0.0156008769 0.130195156 0.590398252 0.762936831 0 
0.00952206273 0.0232078489 0.12413007 0.121841416 0.862214983 0 
-0.00480017578 0.00212961156 0.12650995 0.427805066 0.486373484 0 
0.00188772916 0.0074783517 0.114422642 0.240154535 0.270346791 0 
0.00852371939 0.0296722595 0.117373176 0.34709999 0.115099996 0 
0.00730873132 0.0206188895 0.119282298 0.749533057 0.617372096 0 
-0.0077190646 0.0111808889 0.122937404 0.383562922 0.901166856 0 
-0.00240353472 -0.00212245295 0.105629697 0.923515797 0.928031087 0 
0.000685698004 -0.00493174652 0.107860543 0.906288862 0.556540966 0 
0.0109923538 0.000215587395 0.122992381 0.729230702 0.950912893 0 
0.00363234105 0.0150543805 0.113777079 0.997179747 0.666110277 0 
-0.00782888848 0.00449767429 0.123624109 0.167424351 0.485978514 0 
-0.00578219024 0.0251792278 0.130729049 0.897816896 0.184006885 0 
0.0065242257 0.0272621606 0.119047277 0.917386472 0.920704484 0 
-0.00791730732 0.00382947014 0.121291541 0.0808424354 0.0424760506 0 
-0.00123354106 0.0130577004 0.111188479 0.0817482769 0.79877013 0 
0.0027668816 0.00500839483 0.117768161 0.592021227 0.328415513 0 
-0.00421221461 -0.000975593866 0.125118986 0.154525504 0.187692627 0 
0.00284518464 0.00737005798 0.106376402 0.945027947 0.951344609 0 
0.00548959151 0.0155103896 0.121123642 0.0725284964 0.381155491 0 
-0.0155174267 0.0115363393 0.114114188 0.942860842 0.561886191 0 
0.00145740551 -0.000163989753 0.136003211 0.425788045 0.219696462 0 
-0.00317907496 0.00883219391 0.12933895 0.125743151 0.554010451 0 
0.00171376369 -0.00463097682 0.106826179 0.169157952 0.933793545 0 
0.00791577157 0.00785643421 0.103348546 0.178748548 0.912920058 0 
0.00110474823 0.00134908385 0.120226167 0.228849292 0.499324441 0 
0.00310225133 0.0204400737 0.1258827 0.870298386 0.984994173 0 
0.00430146698 0.021593906 0.119339988 0.0232307296 0.748885155 0 
-0.00607102504 0.00546851056 0.126620919 0.0182922222 0.488820791 0 
0.00948962197 0.00755424378 0.125012308 0.236260116 0.831641018 0 
-0.00645254133 -0.00749027077 0.123850547 0.0904759467 0.649992704 0 
0.00851758756 0.0214241613 0.11857798 0.707226872 0.23739475 0 
0.00135945273 0.00317101623 0.100145616 0.822516739 0.809286177 0 
-0.00278915977 -0.00297982967 0.102675296 0.929520428 0.553833246 0 
-0.00308089284 -0.000796637265 0.127150357 0.375745654 0.256614774 0 
-0.00376544055 0.0108989403 0.129989132 0.294496655 0.100831926 0 
0.00171818293 -0.00515401131 0.106587552 0.983931541 0.680436134 0 
-0.00365226623 0.0149222482 0.131110623 0.189828992 0.351680785 0 
0.00381091097 0.0200583711 0.11928647 0.0508761704 0.840998173 0 
0.00458219834 0.0234350879 0.120288543 0.948209226 0.946320951 0 
-0.0124183819 0.0132494792 0.118490994 0.448134184 0.75916487 0 
-0.00901280995 0.0152868852 0.0991833955 0.960150599 0.930471182 0 
-0.0137996897 0.0181025583 0.115319476 0.462189764 0.948388159 0 
-0.00528871082 0.00249329745 0.126609936 0.429476768 0.479403406 0 
0.00421396224 0.00746573787 0.106511414 0.901345968 0.256949574 0 
0.0116900196 0.00650837971 0.125476539 0.787641764 0.42967689 0 
0.0002224528 0.00730205467 0.129946962 0.727753103 0.0914941579 0 
-0.0123105384 0.0234606657 0.119749308 0.296432614 0.97790128 0 
-0.00214735465 0.00732471701 0.116420075 0.563600004 0.968373597 0 
-0.00185369898 0.00706843054 0.130170211 0.0457499921 0.626034379 0 
-0.00680151163 0.0100919735 0.123722449 0.734795094 0.00732831005 0 
-0.000769479375 0.0229020584 0.132942542 0.108130574 0.851375937 0 
-0.00416818308 -0.00943249278 0.124432154 0.609758735 0.371537387 0 
0.00410486851 0.0245994162 0.119840033 0.894110799 0.795276999 0 
0.00312245032 0.0107870409 0.124069482 0.924014091 0.429004967 0 
0.00679757679 0.000842230627 0.115440592 0.757909 0.62152791 0 
-0.00350392051 0.0134971002 0.130885258 0.187584758 0.331122041 0 
0.00942276511 0.00761943264 0.1252269 0.239199996 0.830636501 0 
0.00916310027 0.000223049385 0.122440651 0.832033217 0.0194392074 0 
-0.00762269879 -0.00481416099 0.114946738 0.69176048 0.92182678 0 
0.00911270175 0.0221896786 0.11870914 0.749673367 0.649013758 0 
-0.00298491307 0.000180621777 0.128051072 0.381511569 0.272025049 0 
0.00524081755 0.0261068214 0.128669292 0.555669427 0.0948319286 0 
-0.00537634967 0.0227029994 0.131205842 0.197263539 0.539560914 0 
0.00419746386 0.00155861827 0.114766613 0.763108969 0.586497247 0 
-0.00429961784 -0.00157372491 0.125310391 0.123013802 0.401476413 0 
-0.0048777773 0.0256590731 0.13195397 0.898141742 0.400271058 0 
-0.00372627773 0.0159817711 0.130396634 0.592741609 0.757427096 0 
0.00541592902 0.024940908 0.117461585 0.0229739826 0.826709509 0 
-0.00324538932 0.00656397548 0.1297528 0.296545208 0.405241132 0 
0.00735840015 0.0203550551 0.122510038 0.063261807 0.778362095 0 
-0.0135600576 0.0158922784 0.116466738 0.912224531 0.904727817 0 
0.00330300396 0.0174584612 0.10460005 0.208238557 0.931305885 0 
-0.00736011798 0.0032084228 0.122965239 0.171893805 0.468150049 0 
0.00616455311 0.0247252658 0.116498418 0.207446888 0.705857396 0 
0.00374324713 0.0058856355 0.117049135 0.599468052 0.311350733 0 
-0.00463519897 0.0210853517 0.129883975 0.14902243 0.354340523 0 
-0.00480290875 0.00100183138 0.126291081 0.113665372 0.371868551 0 
-0.00128932809 -0.00126212661 0.107160129 0.845720172 0.461241484 0 
0.000960065692 0.0113451742 0.136561111 0.326015413 0.709478021 0 
-0.00988813117 0.0165839102 0.121565163 0.49456349 0.979498684 0 
-0.00443198485 0.0144592412 0.130416542 0.289808691 0.0560986362 0 
0.017119281 0.0004831728 0.126388773 0.64239645 0.966100216 0 
0.00496077631 0.00745717622 0.116838686 0.944155812 0.64267242 0 
0.0108097214 0.00689767953 0.125398606 0.153404266 0.908444762 0 
-0.000739917392 -0.000183003518 0.130762175 0.421487957 0.147334352 0 
-0.0042040539 -0.00192200812 0.125834405 0.772652745 0.779425442 0 
-0.00529114949 0.0227893498 0.131679162 0.497802615 0.523874462 0 
-9.26224384e-05 0.0001095763 0.102809943 0.366877049 0.82490319 0 
0.00243339734 0.0178531073 0.119105287 0.824329376 0.0629922673 0 
-0.00450031459 0.0213844478 0.129971847 0.581715882 0.21933493 0 
-0.00556952599 0.0241092071 0.130220562 0.736486077 0.211040407 0 
0.000418616721 0.0146153942 0.108912565 0.931953192 0.967926383 0 
-0.00325897103 -0.0165066402 0.120091289 0.485701323 0.264977872 0 
0.00439740671 0.0229435731 0.120204121 0.946337581 0.940172195 0 
0.000702805643 0.0149999093 0.108092621 0.0779920071 0.908291519 0 
0.000106670093 0.0155042363 0.109155275 0.843304157 0.231727496 0 
0.00556766102 0.0252270103 0.117102541 0.0272542536 0.831574976 0 
-0.0156774204 0.00861954689 0.102620304 0.291714013 0.410812706 0 
0.00948509481 0.0229004882 0.124317713 0.260018885 0.544097543 0 
-0.00409522885 0.00908624288 0.129886761 0.29955399 0.124080047 0 
-0.00256148935 -0.00242056465 0.105809778 0.771220744 0.878934264 0 
-0.0124581847 0.0135688819 0.117991164 0.448891312 0.752385497 0 
-0.00231367489 0.0139515651 0.108887002 0.788255513 0.257307559 0 
-0.000114422466 0.00938793086 0.133400083 0.529261351 0.0445129834 0 
0.00433022995 0.0211670157 0.119835243 0.859743953 0.832275093 0 
-0.0125564625 0.0125820274 0.118598342 0.656265438 0.779953957 0 
0.00463813217 0.0065591638 0.117365964 0.453490973 0.530432343 0 
-0.00122203212 -0.000974202412 0.106991157 0.845306635 0.465315551 0 
0.00113731308 0.00696815364 0.125506297 0.380647689 0.0364056751 0 
-0.00625244481 0.0158487838 0.109670013 0.738633275 0.296216339 0 
0.00197854079 0.00173592626 0.114022717 0.266163111 0.847290635 0 
0.00633225264 0.016614113 0.121111736 0.835243165 0.590977907 0 
0.00152280845 -0.0221131742 0.116968833 0.941710651 0.981132984 0 
-0.00537275616 0.0237147417 0.130837724 0.453887284 0.341039747 0 
-0.000734163332 -0.000698025571 0.10467311 0.578295231 0.650653958 0 
-0.0159098208 0.0112332059 0.113151804 0.943625033 0.549203277 0 
0.00371858338 0.0127144465 0.124428138 0.947880387 0.574263871 0 
-0.00076160708 -0.000661524304 0.131034777 0.807586312 0.108892061 0 
-0.00734324241 0.00996855833 0.123930298 0.241937369 0.881184101 0 
-0.0109901121 0.0185946971 0.122889072 0.978820205 0.617289484 0 
-0.00385552808 0.0131729422 0.132080317 0.262196839 0.0775899291 0 
-0.00455859769 0.0175143853 0.129881218 0.150083452 0.398559093 0 
0.00118861545 0.0023206349 0.109734789 0.772203445 0.373977929 0 
0.0197155718 -0.00307382829 0.122082755 0.578392625 0.00307201175 0 
-0.00517495489 0.0202935785 0.130584911 0.677983463 0.0196072049 0 
0.00107704906 0.0102347126 0.127284154 0.447567761 0.620243728 0 
-0.00379671273 -0.020439703 0.120122507 0.0737661123 0.539404869 0 
-0.00314094941 0.0130031686 0.130159587 0.265102357 0.436593652 0 
0.00513256621 0.00727783144 0.117310122 0.452862501 0.54151547 0 
-0.00298132282 0.00333016249 0.128556311 0.305428147 0.363903165 0 
0.0114409458 0.000356655655 0.123043962 0.729456365 0.945144176 0 
0.00501565449 0.0235487912 0.120068118 0.646111667 0.894543588 0 
-0.00320054847 0.0135582648 0.13373217 0.0288283508 0.622644901 0 
0.00451518036 0.0221605133 0.11961624 0.0220851302 0.758191943 0 
-0.0106383618 -0.0026041551 0.0944829434 0.174999997 0.456511497 0 
-0.00617182348 0.000109888926 0.122943573 0.164733082 0.428132355 0 
-0.0071136402 0.00254746643 0.123076916 0.168814644 0.459883094 0 
0.00598536525 0.00907433592 0.116149247 0.600642323 0.262344003 0 
-0.00144683558 -0.00131417252 0.106737748 0.577305555 0.621191502 0 
0.00721573131 0.0213889685 0.133361101 0.124102965 0.509333193 0 
0.0100018345 0.000171391395 0.123048842 0.64858228 0.793548465 0 
-0.00429591723 0.0279499236 0.132863924 0.95391655 0.989498734 0 
-0.00589892222 -0.00851607416 0.123077586 0.346155941 0.364563406 0 
0.00741439918 0.0106825614 0.115939274 0.921269178 0.84000349 0 
-0.009762289 0.00908982661 0.122979045 0.719964564 0.880487978 0 
-0.0010451728 -0.00850893185 0.120630056 0.579715788 0.246117055 0 
-0.0120819258 0.0123387277 0.119847059 0.451490045 0.778498828 0 
-0.0038934818 0.00874799304 0.12957029 0.756605268 0.140610278 0 
0.00372455688 0.00220405636 0.113898516 0.785762131 0.0491797477 0 
0.00192010251 0.00701622572 0.114116915 0.592298508 0.429941833 0 
0.00515795918 0.0253069997 0.119844295 0.900141656 0.810087442 0 
-0.00099077716 -0.000869002775 0.130312517 0.806598306 0.11835888 0 
0.00284784427 0.0121993627 0.124441549 0.629363239 0.437919915 0 
0.00328489719 0.0020084139 0.114258565 0.78120774 0.0419015512 0 
0.00102298136 0.00434480468 0.110722743 0.840512514 0.645338178 0 
-0.00383620895 0.0115755238 0.130108088 0.292247802 0.0925698876 0 
0.0005161523 0.0110178124 0.134397238 0.872527957 0.367238849 0 
-0.00339428149 0.0152083049 0.131855741 0.198019803 0.356911272 0 
0.0171204992 0.000684749801 0.127099827 0.96675843 0.0360526368 0 
-0.00283327885 -0.00118827145 0.127654999 0.384202182 0.254370749 0 
0.00658983178 0.0134389251 0.120872095 0.0332611613 0.987592578 0 
0.00459310878 0.0225708652 0.118685693 0.440925002 0.991075158 0 
0.00132741896 0.0022744888 0.108935073 0.776053727 0.382484108 0 
0.00556838606 0.0253710374 0.116958313 0.0287975129 0.833461046 0 
0.0117442384 0.00673293974 0.125362918 0.238766715 0.861542523 0 
0.000429579872 -0.00479628751 0.108090259 0.9071486 0.5521276 0 
-0.00675533339 0.00527653471 0.126404837 0.614347577 0.135595024 0 
0.00083559769 -0.00463320548 0.108176522 0.87401402 0.260393739 0 
0.00392762013 0.0245801397 0.119769379 0.895600021 0.792100012 0 
0.0096009206 0.0147993071 0.134315506 0.994861484 0.868000805 0 
-0.00500959018 0.0028672216 0.12568751 0.622406065 0.172432825 0 
0.00616362598 0.0128716268 0.120809771 0.293965042 0.812299967 0 
-0.00936292857 0.00538499886 0.121376507 0.72914362 0.595556438 0 
0.0132124834 0.0152572831 0.12357299 0.949152291 0.821779013 0 
-0.00537249306 0.0193347894 0.130272478 0.686330974 0.0294787176 0 
-0.00490359683 -0.00475825556 0.122270055 0.206714481 0.0783310831 0 
-0.00188411155 -0.00164372684 0.107400917 0.604210019 0.749815822 0 
-0.00330673368 0.00548474304 0.128984794 0.29613319 0.389128387 0 
0.0191702247 -0.00252470002 0.122379608 0.00684830593 0.937077343 0 
-0.00168463588 -0.001043297 0.102579042 0.167199999 0.968015909 0 
-0.00508529041 -0.00854399521 0.124593824 0.825968623 0.178485274 0 
-0.00877309684 0.0130585032 0.122412458 0.278858036 0.273895502 0 
0.0057575996 0.0255754571 0.116927341 0.0280013327 0.836689949 0 
0.00638071913 0.0127958078 0.121618211 0.740184188 0.0790681988 0 
-0.00692949304 0.00983909518 0.124035589 0.245745301 0.877119243 0 
0.00232164166 0.00575049268 0.124980964 0.368675113 0.0181081966 0 
-0.00307203177 0.00135982456 0.12829189 0.311035156 0.340529799 0 
0.0156861786 0.00539468694 0.12406043 0.977868021 0.925348997 0 
0.00714148628 0.00242996635 0.144254401 0.221214607 0.915847421 0 
0.00104355428 0.0109269712 0.135668904 0.177059129 0.805897832 0 
0.00406297809 0.0191113316 0.119108289 0.267441392 0.62976408 0 
-0.00835530274 0.00368161802 0.123336934 0.520131588 0.460401416 0 
0.0106578507 -0.000226897813 0.122842133 0.13313821 0.773684144 0 
-0.00270919478 0.0110071171 0.111595824 0.891768456 0.291312039 0 
0.00259670126 0.0147755183 0.115089029 0.866250575 0.139711574 0 
0.00538203679 0.00815339573 0.117213383 0.987748921 0.404501438 0 
0.00969272014 0.024260832 0.124658443 0.499377519 0.956499994 0 
-0.0095830448 -0.00772380503 0.103536256 0.979926109 0.170334816 0 
-0.00671366882 -0.00679560658 0.113113672 0.925548315 0.891975462 0 
-0.00739210565 0.00266984594 0.122565515 0.883569717 0.204564184 0 
-0.00736039737 0.00181521056 0.12246719 0.479655445 0.703895092 0 
-0.00224872492 0.0140253883 0.108243868 0.0793172196 0.755575955 0 
-0.00338962348 0.00952054746 0.130530104 0.210505739 0.283898622 0 
-0.0132739609 0.0161031168 0.116074868 0.862217784 0.346963644 0 
-0.00894903578 0.0156513304 0.122136749 0.17517978 0.563434362 0 
-0.000184570919 0.0138390372 0.110216416 0.855008364 0.0217332933 0 
-0.0044120322 0.00287579582 0.0964048803 0.207543999 0.559795201 0 
0.00605160417 0.00880201627 0.11666666 0.681788087 0.859162092 0 
-0.00173963932 -0.00253178575 0.107534885 0.310458571 0.938300014 0 
0.0108899605 0.0236598197 0.124404274 0.862100005 0.964900017 0 
0.00953123719 0.0258828122 0.124897033 0.989099979 0.730830193 0 
-0.00560648413 0.00341413007 0.126812294 0.425405204 0.46882987 0 
-0.0137060815 0.0165743176 0.116169825 0.964287639 0.301192671 0 
0.00833926164 0.0227920525 0.123537011 0.853562593 0.415590852 0 
-0.00429315213 -0.00183231931 0.125509396 0.120585307 0.404178053 0 
-0.000995473005 -0.00075565686 0.106656224 0.847456098 0.470418423 0 
0.00113388966 0.00451896759 0.120751329 0.391879737 0.670704663 0 
0.0186814424 -0.00160224596 0.122313917 0.766066849 0.921536803 0 
-0.00616868306 -0.00147207256 0.121944234 0.482559294 0.660590231 0 
-0.000251584715 0.0143876737 0.110414803 0.478731632 0.896231711 0 
-0.00334063009 0.00702361157 0.129865989 0.227273628 0.311229765 0 
-0.0068155122 0.0013467198 0.122365713 0.829809606 0.533306658 0 
0.00380616728 0.00173896959 0.114798568 0.761419296 0.581162393 0 
-0.00286984118 -0.00177637569 0.127483889 0.384462088 0.246621579 0 
-0.0160080027 0.0112380181 0.112731673 0.940845728 0.25864172 0 
-0.0124259861 0.0133668743 0.105741896 0.0814884454 0.677930176 0 
0.00077946065 0.0175742302 0.107915029 0.163245887 0.693983018 0 
0.00533334725 0.025224315 0.120038204 0.956820548 0.703734756 0 
-0.00306521961 0.0120351957 0.130796283 0.276961714 0.444851458 0 
0.00450362824 0.00647973455 0.102150269 0.923591375 0.364882886 0 
-0.0039673415 -0.0125181992 0.122193016 0.338439286 0.420001507 0 
0.0212719087 -0.00357044209 0.12225081 0.344216287 0.118607044 0 
-0.00714842323 0.0105860317 0.123883009 0.729871094 0.0137100248 0 
0.000833315775 0.00176571799 0.110418759 0.776976526 0.363068104 0 
-0.00429930631 0.0240479559 0.130673587 0.754627585 0.850883305 0 
-0.00480676023 0.0202326886 0.130484268 0.673692703 0.022008542 0 
-0.0110973222 0.0180029534 0.123075873 0.0511385836 0.427446783 0 
-0.00473428937 0.0226816852 0.130099565 0.147000283 0.333624005 0 
0.00378399366 0.0161100924 0.130252302 0.88407439 0.163074106 0 
-0.00381567376 4.92402542e-05 0.126338735 0.752521515 0.0299386643 0 
-0.00474216277 0.0158678703 0.131393209 0.281605303 0.0370203704 0 
-3.1815518e-05 -0.00166810758 0.118570566 0.762517571 0.288941205 0 
-0.00239311368 0.00565238204 0.129804567 0.309820026 0.397088647 0 
0.00308399182 0.00205840264 0.114298113 0.390686333 0.947284937 0 
0.0076020374 0.020790441 0.122560151 0.0623327196 0.772010565 0 
-0.00920961145 0.0131993685 0.125919908 0.238129422 0.716859579 0 
0.00535821542 0.0146981021 0.120286465 0.677848935 0.686451018 0 
-0.00426750584 0.0163509864 0.131460592 0.0166845284 0.415816605 0 
-0.00731728971 0.0276094433 0.130201206 0.548470318 0.924968064 0 
0.00484118238 0.00690631755 0.117373042 0.452706069 0.535480976 0 
-0.00300823362 -0.00107789761 0.127375573 0.379839778 0.254392028 0 
0.00651515648 0.00447696215 0.141878679 0.231835514 0.593838871 0 
-0.00516740279 -0.00853474252 0.123850562 0.0915854275 0.670707345 0 
-0.00430662837 0.00317139714 0.121768594 0.885140896 0.0449384041 0 
-0.00377007597 0.0239773467 0.131083101 0.466805667 0.526504815 0 
-0.00467508333 0.00254034903 0.102377392 0.380931497 0.981720865 0 
-0.00136036926 -0.00150729343 0.107008033 0.990586281 0.657090545 0 
0.00987289101 0.023621615 0.124656081 0.532695472 0.700342417 0 
-0.00180155819 -0.00937675498 0.116778582 0.198588297 0.447258979 0 
0.00377696706 0.00726427278 0.106816128 0.414093792 0.75106436 0 
-0.00501211919 -0.00496420078 0.0991697535 0.967672348 0.907176495 0 
0.00580908265 0.00284570316 0.112815432 0.396572828 0.447424352 0 
-0.0108674746 0.00472488115 0.121205322 0.927919388 0.629216552 0 
-0.00218493282 0.0138053643 0.109318122 0.78720808 0.263330638 0 
0.00441855472 0.0232108589 0.120186441 0.964843512 0.878349662 0 
0.0049318606 0.0263777431 0.119829096 0.393022776 0.930146933 0 
-0.000945894339 -0.00749983778 0.120559447 0.655722022 0.0116771376 0 
0.0114168702 0.00673075207 0.125462592 0.154172465 0.900988817 0 
0.000666686974 0.00112939696 0.121236339 0.602809846 0.540015459 0 
-0.00408408744 0.0130971884 0.13017109 0.291166782 0.0733055547 0 
-0.00440271944 0.0217623711 0.130364478 0.587720931 0.215120256 0 
-0.00456905225 0.000438876363 0.126351267 0.776833594 0.809557796 0 
-0.00559256598 -0.00891644228 0.123257831 0.341686636 0.369458944 0 
-0.000349171722 9.32626353e-05 0.103362389 0.0134195648 0.750608802 0 
-0.00511847297 0.0170470551 0.131206989 0.82183373 0.391625434 0 
-0.00732421642 -0.00713726925 0.123239443 0.937642515 0.562688589 0 
-0.00340463663 0.013577152 0.129899517 0.119906291 0.611155272 0 
-0.00339283398 0.00694792019 0.128985152 0.755111217 0.116788067 0 
0.00140246691 0.0212763604 0.123999216 0.738485336 0.88389045 0 
0.00738659874 0.0281891804 0.118644349 0.937883019 0.616587281 0 
-0.00268540694 -0.00345637137 0.127401605 0.391116053 0.226846725 0 
0.00606172625 0.0155377388 0.121172346 0.836128175 0.604460776 0 
-0.00454506883 -0.000209006379 0.126105249 0.114911251 0.385676265 0 
-0.002278361 0.00838272739 0.105897911 0.958742023 0.487543821 0 
0.00543137267 0.0249277204 0.120010041 0.649015188 0.91181165 0 
-0.00291833607 0.0100078564 0.130342454 0.280390114 0.470849365 0 
-0.00378957181 0.0192176271 0.101026371 0.152634069 0.979972124 0 
-0.00361630856 0.000480349991 0.130585939 0.883732796 0.269991994 0 
0.0137314685 0.00056213839 0.123802185 0.411960065 0.8255983 0 
-0.00376613322 -0.0149747171 0.120992899 0.385555327 0.570229292 0 
-0.00680068647 -0.000115438561 0.122475125 0.519414067 0.408795059 0 
-0.00757475104 -0.00701420987 0.123444177 0.103061959 0.887493074 0 
-0.00359302782 -0.00429448904 0.100652471 0.895509005 0.871174514 0 
0.00164447015 0.00910995807 0.105561242 0.461405277 0.979573727 0 
0.00439517945 0.00150310504 0.114917174 0.761305809 0.589127541 0 
-0.0127555393 0.0134955226 0.118289404 0.389615864 0.893566787 0 
-0.00236385735 -0.000595522986 0.128421754 0.817363799 0.630288959 0 
-0.00570317311 -0.00868960749 0.123536177 0.0993244648 0.666059136 0 
0.000984090031 0.00329151982 0.126580432 0.0305132456 0.352896154 0 
-0.00821684394 0.00438299729 0.121654242 0.725520611 0.615909159 0 
-0.0050490438 0.0241182148 0.130697727 0.341377676 0.784031451 0 
-0.00298794592 -0.00148647639 0.127351567 0.381353378 0.249447614 0 
0.00433628354 0.0248373915 0.119629413 0.89825666 0.79844743 0 
0.00556556415 0.0173015594 0.106458932 0.664174974 0.962475061 0 
-0.00288976706 0.000573752914 0.128289878 0.315479159 0.331789374 0 
-0.00626228843 -0.000297625811 0.123055853 0.209597722 0.133304685 0 
-0.00517702848 0.0231372658 0.13093695 0.454779863 0.348772466 0 
-0.0044589825 0.0166195948 0.12986435 0.151245683 0.409570903 0 
0.00921666063 -4.94643537e-05 0.122382544 0.141003117 0.756634593 0 
0.0148224197 0.00561444927 0.124820538 0.975803256 0.522704184 0 
-0.0142529197 0.0144133065 0.108044349 0.833303094 0.217423603 0 
0.00675512478 0.0179349203 0.12160974 0.502314866 0.716999233 0 
0.00168202899 0.0216650534 0.138688937 0.962291896 0.562769175 0 
0.00727580953 0.0191751346 0.122404091 0.505594313 0.699229598 0 
0.00749281514 0.0131760035 0.122248076 0.914499521 0.341351569 0 
0.0103206877 6.45013133e-05 0.122798435 0.83322835 0.00398763828 0 
0.00054583163 0.0148240319 0.108713001 0.931114316 0.963993311 0 
-0.00308398437 0.0115605136 0.129901424 0.267543554 0.454246938 0 
0.00503662508 0.0248329006 0.119887963 0.0210212599 0.791473389 0 
0.00442528725 0.0213007629 0.118938588 0.262797147 0.601651669 0 
0.000376236887 -0.00453804713 0.107929334 0.897162735 0.683467269 0 
-0.00270823878 0.00353248604 0.128967255 0.310030341 0.368649602 0 
-0.00552581623 0.024410056 0.130240545 0.343622625 0.792614996 0 
0.00222901697 -0.00453712745 0.106192857 0.171884328 0.943688989 0 
0.0064511532 0.0280767921 0.121426925 0.0878408626 0.998295784 0 
-0.0152814351 0.0116483737 0.114452705 0.938807964 0.236009866 0 
-0.00270180032 -0.00234739413 0.104948647 0.881469727 0.636036217 0 
0.000710772176 0.00195204699 0.101418614 0.91319716 0.180660218 0 
0.00733606843 0.00326792058 0.112790979 0.397596925 0.466636866 0 
-0.00787424762 0.0114260204 0.123068556 0.274714172 0.297649503 0 
-0.00498876581 0.0219065603 0.130118608 0.14314127 0.34399271 0 
-0.000403185113 -0.000480381917 0.104080364 0.576822221 0.659265459 0 
-0.0057676388 0.00467576645 0.126264051 0.022986412 0.478416681 0 
-0.00715359952 0.0107825892 0.123506166 0.733343959 0.0178184435 0 
-0.000213284351 1.16390174e-05 0.104051694 0.893689215 0.836036861 0 
0.00755048264 0.0205285847 0.12246725 0.0641167387 0.775273204 0 
0.011284397 0.000276216713 0.123393238 0.14961797 0.860214353 0 
0.00460324902 0.00174005819 0.114855565 0.757474959 0.933075547 0 
0.0022802779 0.00866741408 0.113077968 0.105920196 0.571658611 0 
0.0119408639 0.0244678203 0.125835255 0.376580656 0.747193277 0 
0.00579948351 0.0256205406 0.119807355 0.969995975 0.034745574 0 
0.00513764843 0.0260797292 0.120141394 0.674848676 0.975946188 0 
0.0011590377 0.00248036836 0.109121084 0.771250427 0.380922556 0 
0.00675702142 0.0181892235 0.121590056 0.621139109 0.842366338 0 
-0.00174187508 0.00615942664 0.130623519 0.319713086 0.407503992 0 
-0.00212788815 0.00567845162 0.114697747 0.730170548 0.477707654 0 
0.000192866515 0.013792106 0.109345861 0.0591823459 0.945212066 0 
-0.00293794554 0.0120300921 0.130193636 0.270031273 0.447628736 0 
-0.00281134434 -0.00133404834 0.128357455 0.935608745 0.79155302 0 
0.00302873179 0.0209404454 0.122487061 0.609851003 0.670973778 0 
-0.00574768521 0.0251645632 0.130469114 0.336711526 0.800013661 0 
0.00487853074 0.0262853056 0.118375875 0.975528002 0.757417381 0 
0.0109853484 0.014095963 0.122849382 0.097256355 0.86542201 0 
0.00343908812 0.0165545307 0.123858787 0.256145149 0.679599106 0 
0.0067034876 0.0200114399 0.119474284 0.714472532 0.270087034 0 
0.00973791536 0.0126594882 0.11622747 0.0176718701 0.681330562 0 
0.00748395128 0.0195846297 0.12255919 0.505297124 0.693489194 0 
-0.0045964485 0.00287014153 0.100973397 0.878203273 0.828832269 0 
0.0073446664 0.00180455181 0.14477697 0.927569628 0.305332512 0 
0.00728233904 0.0132182455 0.122119524 0.912701607 0.338475883 0 
-0.00578769343 -0.00759249739 0.123108856 0.95297724 0.682411194 0 
0.000538458815 0.0141995931 0.10882543 0.0817451477 0.895503461 0 
0.00678065978 0.00282561989 0.143165588 0.257600009 0.616299987 0 
-0.00434119022 0.0141224824 0.130361199 0.289989084 0.0603266731 0 
-0.00326439156 0.0131205441 0.132031083 0.287100911 0.428015172 0 
-0.00908511318 0.0145227369 0.12194702 0.171152577 0.548858285 0 
0.000633804244 -0.00446955441 0.10775198 0.924319565 0.754221499 0 
-0.00484325131 -0.00953292195 0.116365008 0.695343375 0.653847992 0 
-0.00766142318 0.010633708 0.123296686 0.2745049 0.307989031 0 
-0.0102658262 0.00989261735 0.121498868 0.619662702 0.760399222 0 
-0.00878514536 0.0130695542 0.122622795 0.276265115 0.274014831 0 
-0.00105141662 -0.00957268663 0.118949622 0.247495234 0.863361001 0 
0.00120626949 0.00239526317 0.109472573 0.772196293 0.376986891 0 
-0.00927533489 0.015471207 0.121559955 0.940612555 0.000650482252 0 
-0.00758064864 0.00739027653 0.126864523 0.146669835 0.759291232 0 
-0.00314054498 0.000570480071 0.128002793 0.37857911 0.276087284 0 
-0.00374329998 0.0162416473 0.131852582 0.0253378786 0.417035222 0 
0.00544930482 0.0271495301 0.120280288 0.488809586 0.112870023 0 
-0.0102218324 -0.00858454406 0.101964481 0.946569562 0.166058183 0 
-0.00312249898 0.0153894424 0.131033152 0.022908058 0.434949517 0 
-0.0049779159 0.0192922633 0.130594432 0.679713428 0.0320294574 0 
-0.000663810584 -9.27645015e-05 0.131752089 0.426383406 0.159150347 0 
-0.00864552334 0.00427318877 0.12127319 0.0809265524 0.0339762308 0 
-0.00330898608 0.0155655658 0.131958544 0.0331038646 0.425778031 0 
-0.00269968808 -0.00244172616 0.104646847 0.881306231 0.632228792 0 
-0.0042461222 0.00877523609 0.10369204 0.947195649 0.526106596 0 
-0.00332675572 0.0131446803 0.131529212 0.642088115 0.341651022 0 
-0.0035033233 0.0211909711 0.0978033915 0.997753382 0.274444222 0 
-0.00554933585 -0.0085611362 0.123798266 0.0957669914 0.66651386 0 
0.00672749011 0.0168931447 0.117200047 0.957682252 0.200356096 0 
0.00470435619 0.0217803381 0.134571925 0.144399434 0.926978707 0 
0.00823332462 0.0220099911 0.123576045 0.525065839 0.668624341 0 
-0.00394135527 0.0165764969 0.130507007 0.593937874 0.749621153 0 
0.00240246113 0.00903746113 0.112874776 0.107041642 0.566784084 0 
0.0099090375 0.0228931531 0.118601523 0.751434326 0.662505984 0 
0.00419780239 -0.00381271844 0.10464441 0.353737116 0.895969272 0 
0.002411108 -0.00467299903 0.105785385 0.291995466 0.762299657 0 
0.0027361731 -0.00398954144 0.10537307 0.969134569 0.606198609 0 
-0.00403520977 0.00889404397 0.103431791 0.948091269 0.523473322 0 
0.00861469656 0.011304643 0.116278768 0.629184604 0.486172825 0 
-0.00412028795 -0.00946038123 0.122699499 0.955459237 0.0161285531 0 
0.00332531659 0.0108716935 0.111866571 0.282399267 0.869575024 0 
-0.00298140314 0.0110287713 0.1306687 0.194766223 0.272164017 0 
0.000766491925 0.0125864455 0.138175517 0.828008294 0.988464832 0 
-0.00564362155 -0.00862165727 0.122920528 0.612598896 0.903051317 0 
-0.0109693455 0.0109811416 0.120933898 0.676643968 0.983000517 0 
-0.00291381939 -0.00260586804 0.103458986 0.877844572 0.617761493 0 
0.0013998854 0.0209441595 0.123390242 0.681130648 0.451275826 0 
-0.0050468538 0.0233493503 0.131189421 0.484822303 0.522730649 0 
-0.000940719154 -0.000419042743 0.10619399 0.975196421 0.915091157 0 
-0.00815211982 0.00446638465 0.121446788 0.722577691 0.615384042 0 
0.00248172204 0.00668374402 0.107684359 0.776990414 0.875600874 0 
-0.00452979794 0.0172894578 0.13308911 0.197641253 0.388689756 0 
-0.00421040738 0.0173144583 0.129822597 0.154594764 0.401048839 0 
-0.00275491225 -0.00212259614 0.127877429 0.390657008 0.244217321 0 
-0.00512888934 -0.00829690509 0.124859467 0.827594638 0.174242184 0 
0.00238649943 0.0102560902 0.112039246 0.24379316 0.227101177 0 
0.00285129552 -0.00101936865 0.138808995 0.137104928 0.570177555 0 
0.00778245972 0.0202716794 0.122175902 0.497399986 0.687699974 0 
0.00338514289 0.0118831741 0.111048214 0.97828716 0.312144876 0 
-0.0118621252 0.0121012535 0.119158 0.98251611 0.313903093 0 
-0.00285079656 -0.000277021638 0.127998874 0.383744895 0.266716033 0 
-0.0125368694 0.0132204415 0.117931813 0.14689368 0.980421066 0 
0.00672056712 0.0189708937 0.122259118 0.0823389962 0.42794013 0 
0.000547751028 0.0125960074 0.138421938 0.887766421 0.380727708 0 
0.00477049453 0.0232684184 0.118332788 0.450899988 0.944242895 0 
0.00533823157 0.0263956618 0.120575964 0.215702951 0.788047671 0 
-0.00236194697 -0.00207330449 0.104327247 0.939885318 0.975292325 0 
-0.0110148471 0.0104797175 0.120784536 0.623735428 0.774478853 0 
0.00365690561 0.0111955991 0.111168936 0.595297337 0.365002334 0 
0.0125059355 0.0148877017 0.123110302 0.0558880493 0.99015379 0 
-0.00326797762 0.014841821 0.130198717 0.59169215 0.875883102 0 
0.00136406464 0.0203094147 0.106548853 0.0392150059 0.927919984 0 
-0.00320721394 0.0129249627 0.130768016 0.272701085 0.433970511 0 
-0.00312098581 0.0133007355 0.130273923 0.264719099 0.432888746 0 
0.00860250276 0.0224582423 0.123614341 0.52474308 0.675924778 0 
-0.00496341987 0.020994354 0.129865497 0.14506337 0.355805874 0 
0.0140585499 0.0157487411 0.124011718 0.555917084 0.825032234 0 
0.000796500593 0.0166369099 0.107731178 0.177842855 0.97547555 0 
0.0126410211 0.000997176277 0.123209208 0.900320888 0.213226289 0 
-0.00429646671 -0.00114906707 0.126026809 0.774170756 0.789398313 0 
-0.000297147431 0.00380726648 0.119073205 0.529476404 0.310890973 0 
0.000449091691 -0.00133982685 0.126149699 0.363322824 0.20597291 0 
0.000834700419 -0.00499918358 0.107745506 0.90570271 0.558908165 0 
-0.00444796542 0.00281334552 0.0979903862 0.916632533 0.240720168 0 
0.00347058265 0.00242226478 0.113634728 0.984287322 0.660067439 0 
-0.00744026341 0.00709040882 0.100518234 0.587459624 0.980839372 0 
0.00582803087 0.00912928954 0.116588518 0.595367193 0.263420492 0 
-0.00219868938 -0.00186890562 0.103824086 0.869422793 0.729468822 0 
0.000618155464 0.00103486341 0.101294234 0.0127668669 0.999038577 0 
0.0195084605 -0.000388543733 0.127941057 0.689636767 0.320937723 0 
0.00155674189 0.00298404298 0.107299313 0.837792754 0.165649951 0 
0.00889706053 0.0212936793 0.12210013 0.729107022 0.77981776 0 
0.00285742409 0.0107783908 0.111822732 0.241653949 0.218994662 0 
0.00076535996 0.0131043391 0.138083622 0.82980001 0.982299984 0 
-0.00469999481 0.00364058325 0.126040012 0.270081222 0.408014983 0 
0.000870522053 0.00236735423 0.101115517 0.912384272 0.174158961 0 
-0.00431153271 0.0158107858 0.102092594 0.883985519 0.709919691 0 
-0.00409416901 0.0143282572 0.13082999 0.181555599 0.342692018 0 
-0.00282650627 0.0113812452 0.130614966 0.277649641 0.453767478 0 
0.000116958065 0.0240586493 0.140696734 0.153133675 0.734433115 0 
0.00216914946 0.00911328755 0.113192886 0.391984284 0.87295258 0 
-0.00358802755 0.0141246589 0.130824462 0.187778622 0.339567423 0 
-0.00482116593 -0.00859108474 0.124248207 0.828133583 0.183400959 0 
-0.00693091005 7.55219371e-05 0.122783154 0.522518575 0.412119836 0 
0.001367911 0.00494379783 0.110448077 0.516941547 0.647778034 0 
-0.00311974785 0.00554994727 0.129389822 0.300224066 0.392672539 0 
-0.000874291232 0.00142754684 0.117943123 0.686605215 0.47267437 0 
0.00549556501 0.0134211546 0.109387606 0.95238024 0.571310759 0 
-0.00396228395 0.00818082411 0.115112424 0.767390251 0.791652679 0 
0.0149937989 0.00456768973 0.126941502 0.994755626 0.470340431 0 
0.00229063584 0.0171787627 0.12374112 0.0738529488 0.610426307 0 
-0.00249058497 0.00471282657 0.129356146 0.309934139 0.384351343 0 
0.0187083799 0.00142040802 0.129623622 0.616120517 0.820863605 0 
-0.0058594658 0.0241666138 0.132188112 0.198410615 0.562361479 0 
-0.00132243987 -0.00104139175 0.106536947 0.577302516 0.625630558 0 
-0.00296561373 0.0116560059 0.130274713 0.272520125 0.451592177 0 
-9.06247806e-05 -0.00297607551 0.118601508 0.414753139 0.334977865 0 
0.000116010517 0.0144804902 0.110119045 0.474216193 0.892291784 0 
0.00269604311 0.00677507883 0.107579201 0.775597811 0.872990727 0 
-0.00683090976 0.000267649564 0.123127937 0.526850104 0.414766997 0 
-0.0124053871 0.0124754319 0.118650869 0.657669485 0.781839371 0 
0.00542674819 0.0275525525 0.120420501 0.898337364 0.484127879 0 
-0.0054673804 0.0236034263 0.130666241 0.456644833 0.341396511 0 
-0.0028477381 -0.00242363685 0.127585962 0.388136387 0.239369154 0 
0.00128391595 0.0040531517 0.0994243473 0.66363883 0.92493701 0 
-7.17954463e-05 0.0216689389 0.138755724 0.341335177 0.573151112 0 
-0.00104961672 -0.000486567005 0.106442556 0.845786572 0.474470496 0 
-0.00547831459 0.0243671406 0.130913123 0.624204516 0.609763324 0 
-0.00274404325 0.00692361174 0.12989746 0.22156176 0.31653285 0 
-0.00201446004 -0.0227235891 0.120990932 0.00969698653 0.599197447 0 
-0.00487589743 0.0210249797 0.131095901 0.661974013 0.57921505 0 
0.00187412847 0.00856046937 0.106066547 0.744510472 0.0368726626 0 
0.00515585486 0.0245180633 0.117554218 0.088738054 0.900297046 0 
0.0010013479 1.6527807e-05 0.134533718 0.427022189 0.201858908 0 
-0.00441823248 0.00221433979 0.126319185 0.752705991 0.0582781471 0 
0.00366182881 0.0175000783 0.103919469 0.0829795301 0.910525918 0 
-0.0133156497 0.0126831168 0.117933124 0.930171013 0.478596658 0 
0.0133004058 0.00099212036 0.123016685 0.950827003 0.868948519 0 
0.0112031233 0.000141170065 0.122902215 0.731430769 0.948982656 0 
-0.00681579346 -0.0067516421 0.123291127 0.925557196 0.0318762362 0 
-0.00444838544 0.0225611944 0.130786225 0.484929204 0.536314666 0 
0.00845095888 0.0116895707 0.116574906 0.77464354 0.0365499854 0 
-0.00453565875 -0.000701845856 0.125742346 0.118741512 0.391290456 0 
0.0180401038 -0.00135273626 0.122090437 0.867723048 0.641661823 0 
0.0181479864 9.26295907e-05 0.126985192 0.990648508 0.0952569321 0 
-0.00425746338 0.0166233815 0.131940797 0.0208596978 0.410292983 0 
0.0158771016 0.00127262226 0.125859767 0.368031442 0.924584985 0 
-0.000118352174 0.000527424272 0.102836788 0.910968184 0.740188241 0 
0.0060973065 0.0294939056 0.120739967 0.538807273 0.742356896 0 
0.0120044136 0.000658346049 0.123236381 0.90279007 0.221606404 0 
0.00843410008 0.0008314593 0.111898117 0.181377515 0.968846023 0 
0.00842634588 0.0111962389 0.11613711 0.626793146 0.488416642 0 
-0.00308407657 0.000403060549 0.130017534 0.81575501 0.605221033 0 
-0.000766048848 0.0279574022 0.102423772 0.278029978 0.923361957 0 
0.00261868094 0.0105189737 0.111961745 0.242373094 0.223343343 0 
-0.00452176481 0.00293983892 0.0967494696 0.162400007 0.258879125 0 
0.000446990802 0.0175195485 0.108029947 0.966526747 0.823206902 0 
-2.48601064e-05 -0.00954513624 0.120137542 0.189741969 0.146926686 0 
0.0149625139 0.0164433438 0.123830393 0.192422867 0.983653426 0 
0.0082375519 0.0226347148 0.123643599 0.855099916 0.413527817 0 
-0.00544391014 0.00346367317 0.125898451 0.620561361 0.162993938 0 
0.00447120098 0.0250418317 0.11938028 0.902317643 0.800616026 0 
0.00535972556 0.0271408223 0.120756932 0.217825025 0.778646886 0 
-0.000193488828 0.000263304508 0.132083386 0.420595407 0.165988758 0 
0.00619736314 0.00232093781 0.112726659 0.459720373 0.917047977 0 
-2.42108545e-05 -0.000102266487 0.103365742 0.730270505 0.837272704 0 
0.00852906704 0.000438738469 0.10091988 0.366125375 0.860873103 0 
0.0169100203 0.000355760014 0.120572656 0.958500028 0.144600004 0 
0.00070992281 0.0117799118 0.136480689 0.754346251 0.875133872 0 
-0.00557256024 0.0214886721 0.130878717 0.674660325 0.00415231055 0 
0.00128084049 0.0048389025 0.120655656 0.392968357 0.666377425 0 
0.0099087283 0.0250502788 0.124440223 0.238266706 0.972700536 0 
-0.00530018285 0.0183657687 0.131486103 0.0921128839 0.863022447 0 
-0.00289920717 0.0144816209 0.130816042 0.585523665 0.868082762 0 
-0.00220216811 -0.00171063095 0.128495932 0.547962427 0.304239869 0 
0.00458333176 0.0253234636 0.12010137 0.999670386 0.513450384 0 
0.00492489804 0.0243033022 0.120350517 0.951593161 0.957152307 0 
6.0503422e-05 0.0222785771 0.139719054 0.155799076 0.707947314 0 
-0.00665070023 0.000664803665 0.12323834 0.209323034 0.145380795 0 
0.00256944005 0.00960076507 0.112557277 0.109065771 0.559692562 0 
0.0123697249 0.000221800685 0.12311773 0.412746489 0.844462752 0 
-0.00322507601 0.0120482082 0.131079122 0.280584574 0.443143308 0 
0.0205363538 -0.0035279938 0.122102484 0.552127779 0.95840764 0 
0.00873697363 0.0228447411 0.123458505 0.843212128 0.923128963 0 
0.0016360766 0.0122115156 0.139236838 0.137290984 0.848187566 0 
0.00650312472 0.0098699918 0.11616046 0.598861217 0.251464784 0 
-0.00261339615 0.0104005961 0.111757435 0.0794149712 0.655920863 0 
0.00967107527 0.0230555572 0.124446206 0.533287525 0.692402184 0 
0.00715537323 0.0189397205 0.12227574 0.505278707 0.702652633 0 
0.00423524622 0.00605940307 0.117471054 0.453108698 0.522058904 0 
0.00326056662 0.0149910385 0.114424691 0.993013263 0.717877269 0 
-0.01205042 0.0262950994 0.12154232 0.671400011 0.974699974 0 
-0.0111531662 0.0178991146 0.123903364 0.0442778692 0.434739232 0 
-0.00663706893 -9.03391774e-05 0.123171493 0.528615475 0.410098881 0 
-0.00259158039 0.0146580879 0.106955454 0.0798199251 0.737734199 0 
-0.00462957378 0.0171116702 0.130012676 0.301222801 0.0271181352 0 
-0.000442500634 0.0142852655 0.110492222 0.966953158 0.443754196 0 
0.00591016002 0.0259310007 0.116692632 0.0289797131 0.841199517 0 
-0.0127792936 0.013200473 0.118068323 0.656841695 0.769194543 0 
-0.00380487111 0.0122639164 0.13094081 0.28042236 0.0841872245 0 
-0.00460476382 0.0204212163 0.130300328 0.592476189 0.703186095 0 
0.0004822716 0.000181489289 0.133646846 0.426287025 0.188809991 0 
-0.0015454666 -0.00116905989 0.102419943 0.522499979 0.875579774 0 
0.0152027747 0.00551475212 0.124454282 0.961837888 0.85454607 0 
0.000641863851 0.0185425971 0.10757868 0.979026496 0.219064176 0 
0.00862664543 0.0114824688 0.116084486 0.626696408 0.483935148 0 
-0.000203363903 -0.000308848277 0.103830509 0.730184972 0.843848825 0 
-0.013151302 0.0148168197 0.117153719 0.390300006 0.915579259 0 
0.00627146894 0.0260921158 0.119774848 0.0391377732 0.969525456 0 
0.0138708074 0.015626464 0.12385802 0.556849301 0.828218758 0 
0.00715702772 0.000574220554 0.144948572 0.126958996 0.988630235 0 
-0.00550789665 0.0233129077 0.130219281 0.138303712 0.325508952 0 
-0.00457495125 -0.00899996981 0.125008598 0.607522964 0.381377518 0 
-0.000872170902 -0.019498786 0.11877171 0.907335043 0.504818261 0 
0.00935889874 0.0222074054 0.118317254 0.708265305 0.222120777 0 
0.0112145403 0.00679600239 0.12542887 0.154028624 0.903528988 0 
0.00722753536 0.019899223 0.122392349 0.065818131 0.78370589 0 
-0.00115398562 -0.00341311353 0.118840784 0.52878654 0.149362415 0 
0.00155663316 0.0190870315 0.133986905 0.336000443 0.828988075 0 
-0.00515337521 -0.00848181173 0.126212507 0.604546845 0.39904058 0 
0.00379239721 0.011511581 0.111209258 0.374580264 0.993319631 0 
0.000324930646 0.00018443726 0.133452237 0.426049948 0.185743362 0 
0.00209993706 0.0219131652 0.13984035 0.94163096 0.139510512 0 
-0.00290637603 0.0107881036 0.130436882 0.278850406 0.46136269 0 
-0.00378744118 -0.00479778973 0.0999925584 0.297570944 0.928026497 0 
0.0168427397 0.000707421976 0.126168072 0.218919337 0.702202082 0 
0.00112942047 -4.20683573e-05 0.134843931 0.427029014 0.20616883 0 
0.00157790317 -0.000292256736 0.135652766 0.137920916 0.615272701 0 
0.00690694479 0.00979648251 0.116080083 0.619509995 0.514399409 0 
0.00117848848 0.00207348214 0.109508947 0.183990568 0.729139566 0 
0.000431168068 0.0170393437 0.108340971 0.965183377 0.830022454 0 
0.00313987746 0.011146008 0.111479856 0.242253825 0.212126017 0 
0.00596916396 0.0284979995 0.12071117 0.834004879 0.737093389 0 
0.00619810354 0.0282118302 0.120733313 0.416355371 0.120512724 0 
-0.00468418049 0.0160612632 0.130628094 0.29087466 0.0367183536 0 
-0.000288767536 0.0131902806 0.109909303 0.0575148985 0.957438231 0 
-0.00775679527 0.00406761328 0.123056717 0.173382953 0.479547381 0 
-0.00472227158 -0.00936544873 0.124004707 0.222628117 0.474436402 0 
-0.00844157767 0.0126762856 0.122929879 0.273120999 0.28064841 0 
0.00120287552 0.00201831968 0.109772019 0.18315509 0.725968063 0 
-0.00314574433 0.0154611804 0.130720899 0.0188823789 0.436580509 0 
0.00424769847 0.0216171015 0.120022528 0.913500011 0.951838613 0 
-0.00927090459 0.00578641798 0.121118389 0.0898859501 0.0172983296 0 
-0.00635329075 0.005990915 0.126828402 0.0154757667 0.495963305 0 
0.0167786628 0.00074420817 0.12653321 0.213924795 0.704554856 0 
0.018642148 -0.000234363979 0.128136933 0.231413573 0.473976821 0 
-0.0038703843 0.0170067009 0.130083904 0.587317646 0.744846046 0 
0.000711170374 0.0179596599 0.107575014 0.082526505 0.691203952 0 
0.00653228816 0.0286839828 0.12094228 0.417818278 0.1140301 0 
0.00146814005 0.0030505599 0.10805396 0.835099995 0.175699994 0 
-0.00277260575 0.00813979004 0.129861042 0.282254219 0.494718075 0 
-0.0112601118 0.00268150726 0.11128635 0.94775176 0.563070416 0 
-0.00829757378 0.00553052267 0.123464122 0.172410041 0.499025494 0 
0.0178967938 0.000307563314 0.126351282 0.578923285 0.50029999 0 
-0.00286886864 0.000131907858 0.130248249 0.549827456 0.272225201 0 
-0.00286575407 0.00525652058 0.129430681 0.304195225 0.390105575 0 
0.000759288669 0.0118077453 0.136064067 0.751758695 0.870799005 0 
0.00231894921 -0.00257151038 0.120657563 0.642244518 0.748590827 0 
0.00184114906 -0.00458458997 0.106011517 0.79056108 0.214116678 0 
-0.00533882249 0.0223100949 0.131537825 0.500451207 0.529760659 0 
0.00305005419 0.0103532756 0.112012684 0.285335809 0.862901926 0 
0.00588308275 0.0256407931 0.120104842 0.988424838 0.067474477 0 
0.00320021436 -0.00435504271 0.105289057 0.290729791 0.774517953 0 
0.00486108428 0.0259380434 0.118600264 0.783331454 0.951802373 0 
0.00745030493 0.000395436713 0.115375116 0.948927999 0.440007567 0 
-0.00538639911 0.0245920457 0.130758092 0.336509198 0.790488482 0 
0.00701448135 0.00258659199 0.143989757 0.219415039 0.919645667 0 
0.000695511233 0.000292662939 0.13427414 0.423240155 0.196850315 0 
-0.0111509953 0.0198573414 0.122469246 0.373137802 0.9503088 0 
0.000995192211 0.000372613576 0.133928135 0.606281281 0.845850468 0 
0.0201202538 -0.000840785622 0.130577013 0.0531048514 0.392918199 0 
